ply
format ascii 1.0
element vertex 404
property float x
property float y
property float z
property uchar diffuse_red
property uchar diffuse_green
property uchar diffuse_blue
end_header
-3.895833e-01 -4.834412e-01 3.125720e+00 202 172 110
-4.333068e-01 -1.719957e-01 3.391036e+00 182 151 87
-7.171983e-01 -4.397975e-01 2.965767e+00 25 23 20
-4.813007e-01 5.175832e-02 2.979267e+00 156 90 40
-2.188090e-01 4.839064e-02 3.582869e+00 173 144 83
-5.961472e-01 -1.924859e-01 3.245333e+00 24 22 23
-7.987635e-01 -2.578020e-01 3.057588e+00 110 101 91
-7.347891e-01 -2.532601e-01 2.923961e+00 110 101 91
-6.683554e-01 -5.027360e-01 3.107747e+00 202 173 107
-7.813162e-01 -7.174437e-01 2.868063e+00 18 13 9
-3.464235e-01 1.369841e-01 3.317146e+00 177 143 82
-4.406695e-01 4.786120e-02 3.648713e+00 41 23 15
-6.162221e-01 -3.181137e-01 3.167177e+00 44 40 43
2.279459e-01 -1.456896e-01 2.006723e+00 25 14 10
-7.729288e-01 -5.363498e-01 2.798991e+00 138 71 29
-6.827450e-01 -6.205012e-01 2.923540e+00 13 3 1
-4.296007e-01 8.950222e-02 3.438626e+00 64 34 10
-3.896471e-01 3.650417e-02 3.165021e+00 165 130 75
-4.598796e-01 1.021495e-02 3.026284e+00 192 123 74
-2.995353e-02 8.094322e-03 3.563305e+00 162 130 69
-2.995353e-02 8.094322e-03 3.563305e+00 162 130 69
1.417579e-01 -7.647528e-02 2.681247e+00 174 140 74
-6.780426e-01 -4.133211e-01 3.145007e+00 58 49 50
-4.928040e-01 1.381071e-01 2.931203e+00 14 3 1
-5.271207e-01 1.205482e-01 2.872038e+00 11 7 7
-4.832220e-01 1.055257e-01 2.913238e+00 147 91 43
-3.377483e-01 8.075377e-02 3.444899e+00 169 139 84
-4.911965e-01 -1.705855e-01 3.249628e+00 190 163 102
-6.480835e-01 -6.400928e-01 2.956927e+00 200 174 116
-7.965096e-01 -6.546411e-01 2.763301e+00 12 4 1
4.402815e-01 -7.142304e-02 6.457468e-01 168 139 84
-6.967415e-01 -2.387788e-01 2.927722e+00 119 113 91
1.277477e-01 -2.386449e-01 2.765142e+00 19 11 2
-7.142247e-01 -5.653530e-01 2.909165e+00 197 133 91
-6.690653e-01 -7.077276e-01 2.894869e+00 202 175 122
-8.164356e-02 -1.355093e-01 3.872308e+00 17 9 0
-6.753686e-01 -3.139537e-01 3.048478e+00 144 134 116
-6.587507e-01 -5.530618e-01 2.984970e+00 165 140 99
-7.459183e-01 -5.500947e-01 2.808144e+00 173 104 63
-7.320742e-01 -5.606917e-01 2.756947e+00 47 16 1
-8.058967e-01 -6.051880e-01 2.790892e+00 98 53 31
-7.039829e-01 -6.151247e-01 2.849633e+00 39 5 2
-7.040707e-01 -6.502254e-01 2.847975e+00 186 137 97
-7.040387e-01 -6.498613e-01 2.848301e+00 186 137 97
-7.595707e-01 -6.680959e-01 2.773053e+00 116 66 37
-2.002327e-01 2.004083e-01 3.870297e+00 23 4 0
-2.002327e-01 2.004083e-01 3.870297e+00 23 4 0
-6.334234e-01 1.799723e-01 4.115032e+00 177 149 125
-5.781725e-01 7.817622e-02 4.317910e+00 18 5 0
-2.503411e-01 2.850926e-02 3.276898e+00 180 161 131
-3.166657e-01 3.696663e-02 3.545855e+00 180 161 131
-3.489558e-01 -8.521429e-03 3.321396e+00 170 138 94
1.774870e-01 -8.258227e-02 2.593389e+00 171 155 110
1.774870e-01 -8.258227e-02 2.593389e+00 171 155 110
8.756630e-02 -9.755460e-02 2.912507e+00 183 157 118
8.756630e-02 -9.755460e-02 2.912507e+00 183 157 118
-1.026608e-01 -1.781468e-01 3.905364e+00 160 137 112
3.162547e-01 -9.981694e-02 1.404637e+00 160 137 112
-7.586697e-01 -2.223792e-01 2.842441e+00 150 142 129
-7.587663e-01 -2.223147e-01 2.842658e+00 150 142 129
-6.658783e-01 -2.313393e-01 2.978364e+00 130 117 111
1.675569e-01 -2.115111e-01 2.603149e+00 83 93 83
1.675569e-01 -2.115111e-01 2.603149e+00 83 93 83
-7.009555e-01 -2.691053e-01 2.951409e+00 33 29 18
-6.970264e-01 -4.805941e-01 2.920754e+00 29 16 6
-7.004259e-01 -5.339392e-01 2.903388e+00 121 94 67
-7.098097e-01 -5.375393e-01 2.852429e+00 47 5 0
-7.201332e-01 -7.365984e-01 2.865801e+00 25 12 1
-8.151140e-01 -7.766579e-01 2.817058e+00 184 158 120
-8.272104e-01 -8.077829e-01 2.888586e+00 198 172 124
-1.461173e+00 2.584639e-01 3.672453e+00 93 75 51
-5.416871e-01 2.447489e-01 4.020077e+00 27 23 22
-4.350050e-01 1.424453e-01 3.001710e+00 120 91 78
-4.954421e-01 1.109907e-01 2.904443e+00 126 75 41
-4.071972e-01 7.538971e-02 3.038863e+00 166 110 89
-4.071972e-01 7.538971e-02 3.038863e+00 166 110 89
-4.234830e-01 5.395106e-02 2.961611e+00 121 48 1
-4.242335e-01 5.316836e-02 2.962249e+00 121 48 1
-5.404711e-01 3.677941e-02 2.903415e+00 158 95 59
-7.957438e-01 2.988936e-02 2.788358e+00 12 11 11
-1.653337e-01 6.460413e-02 4.710715e+00 29 6 0
-1.653337e-01 6.460413e-02 4.710715e+00 29 6 0
-1.817289e+00 9.880415e-02 5.563873e+00 14 12 14
-5.114243e-01 -1.692848e-02 3.082096e+00 49 8 1
8.483634e-02 -8.713093e-02 2.086422e+00 164 132 91
5.285402e-01 -5.627065e-02 1.062995e-01 161 129 83
2.668189e-01 -1.200236e-01 1.833603e+00 144 140 118
3.453895e-02 -1.920535e-01 3.436253e+00 13 12 3
-5.307462e-01 -2.049656e-01 3.208303e+00 64 61 58
-6.947449e-01 -2.095758e-01 2.914407e+00 29 24 21
2.793059e-01 -1.349676e-01 1.580136e+00 156 121 83
-7.928246e-01 -2.391133e-01 2.813766e+00 104 97 94
-7.326668e-01 -2.618530e-01 2.890898e+00 32 21 15
-7.314725e-01 -2.632473e-01 2.889693e+00 32 21 15
-6.437717e-01 -2.661993e-01 3.055278e+00 35 24 19
-6.792865e-01 -2.701125e-01 2.983819e+00 51 42 27
-6.783618e-01 -2.688312e-01 2.984332e+00 51 42 27
-6.567692e-01 -2.780537e-01 3.039158e+00 148 139 122
-6.497821e-01 -2.839754e-01 3.079835e+00 160 147 141
-6.490011e-01 -2.837704e-01 3.079340e+00 160 147 141
-6.964942e-01 -2.859930e-01 2.970704e+00 123 121 108
1.572292e-01 -2.451586e-01 2.661196e+00 95 102 92
-7.558075e-01 -3.091996e-01 2.937260e+00 31 25 19
-5.955485e-01 -3.871859e-01 3.082083e+00 190 172 133
-7.528566e-01 -4.264812e-01 2.913738e+00 71 56 45
-6.520537e-01 -4.425129e-01 3.139618e+00 196 174 124
-7.236576e-01 -4.780638e-01 2.892621e+00 50 6 1
2.725265e-01 -3.130243e-01 1.957280e+00 35 10 1
-7.451589e-01 -4.977955e-01 2.838522e+00 43 11 0
-7.451748e-01 -4.983812e-01 2.838503e+00 43 11 0
4.125873e-01 -2.037754e-01 1.002228e+00 52 8 1
-7.453936e-01 -5.415777e-01 2.838044e+00 84 21 0
3.205611e-01 -3.136239e-01 1.676711e+00 178 139 102
-6.845991e-01 -5.844990e-01 2.981284e+00 35 29 8
-8.048363e-01 -5.471056e-01 2.939714e+00 166 97 58
-4.665719e-01 1.465807e-01 2.890978e+00 17 6 3
-6.847044e-01 -6.306330e-01 2.968816e+00 29 19 0
-5.295452e-01 -5.443384e-03 2.961013e+00 49 39 37
-5.724382e-01 -5.171522e-02 3.660200e+00 160 133 83
-6.398893e-01 -3.206545e-01 3.033312e+00 61 51 49
-6.513448e-01 -5.049247e-01 2.834321e+00 18 12 4
-5.701051e-01 -3.997896e-01 3.049005e+00 194 173 132
7.025619e+00 1.503054e+00 -8.374447e+00 178 141 99
-4.610407e-01 4.441447e-02 3.069008e+00 101 40 4
-7.349633e-01 -2.440481e-01 2.887107e+00 128 124 112
-7.537386e-01 -6.800909e-01 2.969887e+00 19 18 18
-5.375004e-01 -9.644960e-02 3.138179e+00 12 12 12
-1.015839e+00 -3.546816e-01 2.824930e+00 39 25 14
-4.393857e-01 3.334014e-02 2.985439e+00 192 122 67
-6.823259e-01 -2.298489e-01 2.918180e+00 129 123 105
-6.749368e-01 -3.080497e-01 3.031887e+00 143 137 113
-7.826312e-01 -5.419725e-01 2.806554e+00 147 80 32
-7.569576e-01 -6.042771e-01 2.831187e+00 52 21 14
-4.333400e-01 4.640961e-02 3.162181e+00 8 5 5
-4.739031e-01 -8.468066e-03 3.084150e+00 176 112 55
-4.102521e-01 5.345662e-02 2.998690e+00 174 117 84
-4.337898e-01 2.351982e-02 3.137305e+00 141 108 98
-4.498338e-01 3.017509e-03 3.138521e+00 30 5 2
-5.260459e-01 9.928910e-03 2.947622e+00 34 15 11
-7.735877e-01 -1.914554e-01 2.846085e+00 22 17 14
-5.821965e-01 -2.515768e-01 3.316266e+00 178 163 111
-6.829094e-01 -3.401083e-01 2.983555e+00 48 41 38
-7.125814e-01 -5.997939e-01 2.851096e+00 68 24 3
-6.725735e-01 -3.088188e-01 3.030677e+00 120 115 92
-5.281288e-01 -1.333171e-02 3.039565e+00 40 19 16
-4.213431e-01 1.363510e-01 2.985482e+00 47 5 0
-4.950128e-01 1.314408e-03 3.073147e+00 196 125 77
-1.025428e+00 1.098200e-01 2.896330e+00 38 23 3
-5.805828e-01 -4.211615e-02 3.338489e+00 11 6 10
-7.011313e-01 -3.050983e-01 2.965062e+00 34 34 23
-6.711826e-01 -5.698082e-01 3.039525e+00 176 157 102
-7.140076e-01 -6.631739e-01 2.994342e+00 167 144 108
-7.466227e-01 -6.822072e-01 2.745371e+00 123 68 39
-6.992941e-01 -5.378367e-01 3.062197e+00 160 137 96
-5.023047e-01 7.524302e-02 3.291146e+00 166 146 111
-4.830882e-01 -5.987420e-03 3.079160e+00 180 124 97
-6.296992e-01 -1.837965e-01 3.357395e+00 19 16 18
-9.687993e-01 1.220208e-01 2.808748e+00 30 22 4
-6.718664e-01 -3.150930e-01 3.048725e+00 144 128 100
-7.271869e-01 -2.785028e-01 2.932591e+00 131 128 111
-6.493436e-01 -2.506808e-01 3.016956e+00 56 51 49
-4.285415e-01 9.420001e-03 3.441339e+00 161 139 99
9.628724e-01 8.137436e-02 2.401176e+00 160 132 93
-6.996867e-01 -3.056729e-01 2.964248e+00 34 34 23
-7.890306e-01 -2.694417e-01 2.859776e+00 39 35 31
-4.808145e-01 1.556986e-02 3.141582e+00 149 99 48
-4.239039e-01 6.546522e-02 3.406202e+00 158 136 83
-7.904822e-01 1.917130e-01 2.778787e+00 108 97 75
-5.738980e-01 -3.421687e-02 3.333185e+00 12 9 10
-1.703675e+00 3.746883e-02 3.900240e+00 19 9 1
-4.934517e-01 5.564640e-02 3.263395e+00 165 145 102
6.808701e-01 6.491837e-02 2.413170e+00 165 141 101
-6.796183e-01 -4.582865e-01 3.124356e+00 190 167 132
-6.253083e-01 -9.383097e-02 3.404909e+00 41 29 23
-3.999975e-01 1.557935e-01 3.013653e+00 23 8 5
-3.931451e-01 9.590772e-02 3.008875e+00 179 115 85
-6.948294e-01 -2.708709e-01 2.949805e+00 37 29 18
-7.053739e-01 -2.896193e-01 2.944056e+00 137 126 112
-7.556540e-01 -4.577951e-01 3.165828e+00 35 23 16
-5.543614e-01 2.028506e-02 2.908778e+00 27 11 3
-6.482305e-01 -2.668134e-01 3.089222e+00 34 22 23
-8.087016e-01 -5.799288e-01 2.745841e+00 6 8 8
-7.702179e-01 -4.889585e-01 3.148682e+00 175 149 97
-8.588126e-01 -4.917400e-01 2.729025e+00 20 10 0
-5.349705e-01 -1.665008e-02 3.313243e+00 10 7 3
-7.634292e-01 -5.684243e-01 2.802855e+00 55 22 9
-4.675460e-01 6.082010e-02 3.251922e+00 161 146 107
-9.195415e-01 1.311041e-01 2.762652e+00 121 98 61
-7.650721e-01 -4.182783e-01 2.946326e+00 81 49 27
-7.203860e-01 -6.039914e-01 3.043265e+00 66 47 20
-7.273142e-01 -6.303337e-01 3.024704e+00 45 30 9
-8.632923e-01 -7.327084e-01 2.802474e+00 193 167 118
-4.883189e-01 9.307621e-02 3.271689e+00 33 25 11
-6.299194e-01 -1.822361e-01 3.357163e+00 12 12 14
-7.660163e-01 -4.458764e-01 3.222884e+00 185 161 124
-7.604652e-01 -4.600215e-01 3.144223e+00 45 29 17
-7.083290e-01 -5.139774e-01 2.882701e+00 40 2 1
-7.045988e-01 -5.151452e-01 2.881418e+00 40 2 1
-7.622320e-01 -5.743383e-01 3.092064e+00 59 39 10
-7.246398e-01 -5.862613e-01 2.802458e+00 59 17 0
-8.920593e-01 -5.506368e-01 2.746363e+00 41 26 2
-8.095781e-01 -5.958753e-02 2.762150e+00 12 12 14
-7.528047e-01 2.412615e-01 2.802543e+00 118 89 41
-7.528047e-01 2.412615e-01 2.802543e+00 118 89 41
-5.374527e-01 3.858351e-02 3.165745e+00 181 118 71
-7.817354e-01 -7.572929e-01 2.917067e+00 187 170 113
-4.221387e-01 7.629514e-02 2.954591e+00 192 126 80
-4.615178e-01 2.913466e-02 3.068332e+00 90 32 3
-6.112499e-01 3.599667e-03 3.090322e+00 204 131 89
-6.713893e-01 -2.504224e-01 3.369504e+00 52 37 17
-6.652060e-01 -2.529503e-01 3.000156e+00 45 38 33
-7.796111e-01 -5.927393e-01 3.242459e+00 198 173 106
-3.978105e-01 5.997367e-02 3.139716e+00 15 13 12
-8.909330e-01 1.754187e-01 2.877522e+00 119 97 54
-7.690816e-01 -4.807235e-01 2.816395e+00 75 50 19
-7.598457e-01 2.112350e-02 2.790842e+00 55 57 56
-7.455236e-01 -5.782666e-01 2.818792e+00 66 23 3
-4.337228e-01 1.087203e-01 3.277978e+00 147 130 92
-4.680510e-01 3.281218e-02 3.164960e+00 132 93 61
-5.577941e-01 -3.683845e-02 3.375361e+00 12 6 0
-5.401180e-01 1.789151e-02 2.934135e+00 24 6 2
-6.607105e-01 -2.719245e-01 2.999523e+00 85 86 75
-8.940132e-01 -4.423659e-01 2.756562e+00 30 17 1
-7.125131e-01 -5.372240e-01 2.876740e+00 146 104 61
-7.254297e-01 -5.343528e-01 2.836903e+00 37 0 0
-9.078620e-01 -3.883848e-01 2.691834e+00 180 152 89
-8.410017e-01 -7.398203e-02 2.650284e+00 40 33 29
-5.555032e-01 7.201383e-03 3.353613e+00 151 134 94
-9.337259e-01 1.880912e-02 2.725184e+00 36 26 14
-4.117317e-01 8.923692e-02 3.061958e+00 129 74 46
-6.714717e-01 -5.413465e-02 3.449194e+00 33 24 1
-6.694107e-01 -8.457629e-02 3.287128e+00 9 8 1
-7.350379e-01 -1.777248e-01 2.843450e+00 35 29 29
-7.222268e-01 -3.112401e-01 2.911805e+00 33 31 25
-7.775312e-01 -4.446397e-01 3.226577e+00 47 35 20
-7.201892e-01 -5.358830e-01 2.875898e+00 162 106 73
-7.230179e-01 -5.908013e-01 2.827578e+00 182 122 74
-8.105368e-01 -4.142103e-01 2.799325e+00 6 6 7
-7.161085e-01 -5.706574e-01 2.831469e+00 189 125 71
-5.634508e-01 1.216996e-01 3.313874e+00 28 23 19
-4.872378e-01 8.568919e-02 3.227408e+00 5 7 5
-7.629231e-01 -4.324731e-01 2.980556e+00 90 54 30
-3.979870e-01 1.337079e-01 3.004973e+00 131 90 74
-4.076346e-01 1.125998e-01 3.041934e+00 121 81 56
-4.217824e-01 1.104902e-01 3.068192e+00 58 16 0
-4.217824e-01 1.104902e-01 3.068192e+00 58 16 0
-8.270177e-01 1.497502e-01 2.782132e+00 97 82 66
-6.594063e-01 -4.499610e-02 3.415905e+00 20 9 1
-6.995361e-01 -8.268591e-02 3.450052e+00 54 45 18
-6.794565e-01 -2.817481e-01 3.015311e+00 59 50 42
-7.411400e-01 -3.389358e-01 3.428366e+00 185 160 94
-8.340302e-01 5.148431e-02 2.702525e+00 32 29 25
-6.686408e-01 -2.412738e-01 2.877846e+00 111 99 81
-7.576949e-01 -6.624602e-01 2.772760e+00 112 61 36
-4.573133e-01 4.829314e-02 3.074433e+00 157 96 44
-6.237621e-01 -2.096231e-02 3.422159e+00 164 147 110
-7.718904e-01 -6.169017e-01 2.777473e+00 138 90 54
-7.678995e-01 -6.123043e-01 2.773928e+00 138 90 54
-4.948585e-01 8.097067e-03 3.110027e+00 160 114 76
-8.401240e-01 8.742407e-02 2.707946e+00 34 22 3
-6.944818e-01 -1.954151e-01 2.875004e+00 37 33 31
-6.882199e-01 -5.538612e-01 3.088164e+00 138 121 78
-8.164321e-01 -6.604394e-01 2.718169e+00 175 156 104
-7.366901e-01 -6.410438e-01 3.085105e+00 171 146 89
-8.453120e-01 1.070394e-01 2.708069e+00 132 115 73
-4.548996e-01 1.408525e-01 3.055983e+00 18 6 1
-4.880177e-01 5.189505e-02 3.081347e+00 158 99 52
-4.578191e-01 1.317801e-01 3.100593e+00 21 10 3
-4.230891e-01 9.264977e-02 3.063164e+00 136 82 45
-4.751702e-01 2.039518e-02 3.065400e+00 174 116 102
-7.048079e-01 -9.441358e-02 3.444661e+00 51 40 27
-7.957317e-01 -5.002995e-01 3.134414e+00 145 122 84
-8.314375e-01 -2.549458e-01 2.742619e+00 35 33 32
-8.929064e-01 -3.823233e-01 2.705032e+00 182 152 88
-7.300438e-01 -6.390834e-01 2.909714e+00 8 8 7
-5.895172e-01 4.014135e-02 3.366622e+00 126 100 52
-7.258100e-01 -4.762092e-01 2.942272e+00 29 16 5
-7.588435e-01 1.090377e-01 2.764987e+00 20 21 17
-8.143640e-01 -5.073266e-01 3.113247e+00 25 18 1
-7.730648e-01 -5.937974e-01 2.698959e+00 160 133 82
-7.981607e-01 -7.911104e-01 2.861362e+00 204 176 122
-7.257831e-01 1.252519e-01 2.742409e+00 132 116 88
-6.216385e-01 -1.384405e-01 3.440461e+00 41 29 9
-8.614983e-01 7.469581e-02 2.693256e+00 158 132 91
-7.407495e-01 -4.432623e-01 2.901147e+00 22 4 0
-7.848521e-01 -4.358887e-01 2.745095e+00 40 20 1
-8.670630e-01 -4.938896e-01 2.732962e+00 138 117 89
-8.032114e-01 -7.681674e-01 2.914522e+00 186 164 120
-4.204632e-01 1.054512e-01 3.109160e+00 20 6 1
-4.054581e-01 4.119244e-02 3.040962e+00 155 87 54
-8.010776e-01 -3.001250e-02 2.786747e+00 3 3 5
-6.942374e-01 -3.223165e-01 3.027844e+00 141 132 109
-8.658005e-01 -3.070272e-01 2.722097e+00 44 27 15
-7.744063e-01 -6.118995e-01 2.717928e+00 29 10 1
-7.140763e-01 2.120428e-01 2.795140e+00 136 108 59
-6.586400e-01 1.783964e-01 2.807018e+00 22 12 4
-7.878245e-01 -4.282330e-01 2.981279e+00 93 48 22
-8.137033e-01 -4.356561e-01 2.719836e+00 176 144 93
-8.058794e-01 -4.402582e-01 2.720065e+00 170 139 92
-4.694320e-01 5.261074e-02 3.075567e+00 167 106 60
-7.441496e-01 1.414910e-01 2.724086e+00 17 8 1
-7.136257e-01 -1.966484e-01 2.833580e+00 108 100 93
-7.199011e-01 -3.411339e-01 3.000035e+00 32 26 28
-8.763326e-01 -3.379445e-01 2.724976e+00 182 155 117
-7.189623e-01 -4.785271e-01 2.869866e+00 51 2 0
-8.388281e-01 -5.369492e-01 3.103869e+00 51 34 12
-8.089528e-01 -4.618607e-01 2.726409e+00 54 28 6
-7.297380e-01 -5.765083e-01 2.857719e+00 178 112 68
-7.689795e-01 -6.083541e-01 2.772954e+00 131 101 79
-4.373189e-01 6.567666e-02 3.083214e+00 99 44 2
-9.140467e-01 -2.842365e-01 2.700221e+00 155 133 94
-7.078739e-01 -5.867437e-01 3.032359e+00 73 65 51
-6.908311e-01 -3.220252e-01 3.002120e+00 135 132 113
-5.281791e-01 -1.151513e-02 3.123192e+00 26 7 0
-6.738842e-01 -2.515255e-01 2.862275e+00 121 109 97
-6.838314e-01 -2.114520e-01 2.889441e+00 36 34 32
-7.652027e-01 -5.927743e-01 3.084112e+00 47 32 3
-6.588965e-01 2.582693e-01 2.811356e+00 14 9 7
-7.150690e-01 -6.158651e-01 2.901052e+00 58 14 0
-7.457274e-01 -5.474404e-01 2.888461e+00 147 76 25
-7.726625e-01 1.312898e-01 2.750126e+00 141 118 67
-7.872002e-01 -4.005536e-01 2.721690e+00 167 140 89
-8.187899e-01 9.614058e-02 2.705787e+00 153 130 90
-8.893410e-01 1.571928e-02 2.703201e+00 26 18 14
-7.230639e-01 2.110457e-01 2.800677e+00 136 111 69
-4.480814e-01 4.466802e-02 3.036403e+00 164 93 62
-5.659046e-01 4.977517e-02 2.865487e+00 59 31 21
-7.104599e-01 -2.808370e-01 2.884004e+00 35 30 25
-7.104599e-01 -2.808370e-01 2.884004e+00 35 30 25
-7.805211e-01 4.140582e-03 2.807136e+00 9 8 6
-9.063316e-01 7.559959e-03 2.683890e+00 169 140 101
-5.230569e-01 2.334012e-03 3.033416e+00 21 0 0
-8.573780e-01 4.962967e-02 2.695948e+00 47 31 13
-6.582032e-01 -2.413348e-01 2.899323e+00 114 107 89
-5.105310e-01 1.219750e-01 2.894270e+00 22 5 1
-4.808344e-01 7.864760e-03 3.060704e+00 28 7 3
-4.947220e-01 1.009207e-02 2.966640e+00 178 126 89
-8.199893e-01 -1.300980e-01 2.677055e+00 62 46 27
-7.030545e-01 -2.678112e-01 2.906596e+00 37 29 18
-1.138080e+00 -3.390872e-01 3.180123e+00 38 25 11
-8.260514e-01 -4.877898e-01 2.737720e+00 27 15 3
-7.985155e-01 -6.985242e-01 2.741958e+00 196 171 122
-9.028260e-01 2.342083e-02 2.686328e+00 167 140 97
-6.256797e-01 1.474730e-01 2.849602e+00 12 16 15
5.511219e-01 -5.388544e-02 7.019082e-04 0 255 0
5.716624e-01 -4.692155e-02 -4.434906e-02 255 255 0
5.497055e-01 -5.722469e-02 1.168054e-02 255 0 0
5.702325e-01 -5.065483e-02 -3.343575e-02 255 255 0
6.413464e-01 -2.840471e-02 4.028781e-02 0 255 0
6.637207e-01 -2.100891e-02 -3.810900e-03 255 255 0
-1.923870e+00 -3.305208e-01 5.820718e+00 255 0 0
-1.906421e+00 -3.328826e-01 5.773921e+00 255 255 0
-2.018364e+00 -2.506466e-01 5.735749e+00 0 255 0
-1.999156e+00 -2.539810e-01 5.689706e+00 255 255 0
1.128373e+00 6.542512e-02 3.340885e-01 255 0 0
1.158694e+00 7.317171e-02 2.950932e-01 255 255 0
-2.162472e+00 -3.802532e-01 5.673708e+00 0 255 0
-2.140532e+00 -3.813893e-01 5.628793e+00 255 255 0
-2.250288e+00 -3.700463e-01 5.612081e+00 255 0 0
-2.227137e+00 -3.720041e-01 5.567807e+00 255 255 0
-2.334459e+00 -3.636668e-01 5.530983e+00 0 255 0
-2.309983e+00 -3.668823e-01 5.487503e+00 255 255 0
1.325253e+00 -1.221940e-01 5.227114e-01 255 0 0
1.358768e+00 -1.164183e-01 4.860592e-01 255 255 0
-2.477313e+00 -2.058366e-01 5.397370e+00 0 255 0
-2.450120e+00 -2.104975e-01 5.355671e+00 255 255 0
-2.557406e+00 -1.829000e-01 5.335707e+00 255 0 0
-2.528837e+00 -1.877582e-01 5.294962e+00 255 255 0
-2.673479e+00 -1.117816e-01 5.262933e+00 0 255 0
-2.643319e+00 -1.176144e-01 5.223483e+00 255 255 0
-2.842125e+00 -1.404182e-01 5.149868e+00 255 0 0
-2.808968e+00 -1.458412e-01 5.112838e+00 255 255 0
1.918559e+00 -3.081232e-01 1.020131e+00 0 255 0
1.959875e+00 -3.059907e-01 9.920523e-01 255 255 0
-3.129797e+00 -8.646603e-02 4.901685e+00 255 0 0
-3.092496e+00 -9.201791e-02 4.868854e+00 255 255 0
-3.230966e+00 -3.256891e-02 4.789541e+00 0 255 0
-3.191914e+00 -3.893091e-02 4.758972e+00 255 255 0
-3.317108e+00 -8.780263e-02 4.668380e+00 255 0 0
-3.276637e+00 -9.318316e-02 4.639515e+00 255 255 0
-3.362211e+00 9.154214e-02 4.558999e+00 0 255 0
-3.321300e+00 8.290629e-02 4.531582e+00 255 255 0
-3.433168e+00 1.722144e-01 4.444775e+00 255 0 0
-3.390811e+00 1.627000e-01 4.419968e+00 255 255 0
-3.546559e+00 1.936073e-01 4.276931e+00 0 255 0
-3.502680e+00 1.839271e-01 4.255001e+00 255 255 0
-3.659335e+00 2.878825e-01 4.043624e+00 255 0 0
-3.614364e+00 2.770343e-01 4.024652e+00 255 255 0
-3.771230e+00 3.608591e-01 3.573070e+00 0 255 0
-3.724084e+00 3.491619e-01 3.561219e+00 255 255 0
-3.682291e+00 3.849367e-01 3.250593e+00 255 0 0
-3.634658e+00 3.713931e-01 3.243690e+00 255 255 0
-3.597531e+00 5.086186e-01 3.132283e+00 0 255 0
-3.550392e+00 4.928154e-01 3.126978e+00 255 255 0
2.416429e+00 -1.633405e-01 2.242615e+00 255 0 0
2.465550e+00 -1.596746e-01 2.234032e+00 255 255 0
-3.748525e+00 3.600801e-01 3.415762e+00 0 255 0
-3.700978e+00 3.478838e-01 3.406251e+00 255 255 0
-3.529893e+00 5.389279e-01 2.999497e+00 255 0 0
-3.482735e+00 5.226073e-01 2.996368e+00 255 255 0
-3.443831e+00 5.692771e-01 2.868917e+00 0 255 0
-3.396832e+00 5.522408e-01 2.867961e+00 255 255 0
2.139133e+00 -6.006751e-01 3.140577e+00 255 0 0
2.188822e+00 -6.036671e-01 3.145271e+00 255 255 0
