ply
format ascii 1.0
element vertex 565
property float x
property float y
property float z
property uchar diffuse_red
property uchar diffuse_green
property uchar diffuse_blue
end_header
-5.501857e-01 -3.842240e-01 3.032604e+00 202 172 110
-5.813774e-01 -1.843073e-01 3.217382e+00 182 151 87
-7.615654e-01 -3.445323e-01 2.917341e+00 25 23 20
-5.959739e-01 -2.313295e-02 2.944413e+00 156 90 40
-4.395449e-01 -4.850256e-02 3.353527e+00 173 144 83
-6.837641e-01 -1.907486e-01 3.113987e+00 24 22 23
-8.134865e-01 -2.247510e-01 2.979076e+00 110 101 91
-7.747982e-01 -2.199254e-01 2.904619e+00 110 101 91
-7.347803e-01 -3.910698e-01 3.014792e+00 202 173 107
-5.142109e-01 2.057928e-02 3.172993e+00 177 143 82
-5.864230e-01 -4.699005e-02 3.385231e+00 41 23 15
-6.983180e-01 -2.715394e-01 3.059208e+00 44 40 43
9.428608e-03 -8.742830e-02 1.763345e+00 25 14 10
-8.012163e-01 -4.027543e-01 2.812214e+00 138 71 29
-7.420198e-01 -4.641198e-01 2.888227e+00 13 3 1
-5.737515e-01 -1.315505e-02 3.250983e+00 64 34 10
-5.418902e-01 -4.050401e-02 3.072704e+00 165 130 75
-5.839658e-01 -5.238417e-02 2.975193e+00 192 123 74
-2.924489e-01 -7.527463e-02 3.237097e+00 162 130 69
-2.924489e-01 -7.527463e-02 3.237097e+00 162 130 69
-6.416500e-02 -8.000401e-02 2.178646e+00 174 140 74
-7.401881e-01 -3.329123e-01 3.040739e+00 58 49 50
-6.013033e-01 3.451707e-02 2.914549e+00 14 3 1
-6.237749e-01 2.412282e-02 2.875213e+00 11 7 7
-5.941614e-01 1.389521e-02 2.901283e+00 147 91 43
-5.114745e-01 -2.070423e-02 3.251554e+00 169 139 84
-6.163893e-01 -1.786099e-01 3.123123e+00 190 163 102
-7.199041e-01 -4.786352e-01 2.910173e+00 200 174 116
-8.168761e-01 -4.804086e-01 2.783046e+00 12 4 1
1.126561e-01 -3.676481e-02 1.247430e+00 168 139 84
-7.456789e-01 -2.112132e-01 2.903111e+00 119 113 91
-4.455829e-02 -1.372397e-01 2.064959e+00 19 11 2
-7.641114e-01 -4.256654e-01 2.883246e+00 197 133 91
-7.337595e-01 -5.216285e-01 2.866482e+00 202 175 122
-3.583581e-01 -1.813762e-01 3.538091e+00 17 9 0
-7.355315e-01 -2.641541e-01 2.981120e+00 144 134 116
-7.258148e-01 -4.214644e-01 2.930369e+00 165 140 99
-7.820327e-01 -4.129984e-01 2.815729e+00 173 104 63
-7.733041e-01 -4.202507e-01 2.785257e+00 47 16 1
-8.210232e-01 -4.482239e-01 2.799541e+00 98 53 31
-7.558642e-01 -4.596980e-01 2.838343e+00 39 5 2
-7.564851e-01 -4.826223e-01 2.836758e+00 186 137 97
-7.563314e-01 -4.824728e-01 2.836873e+00 186 137 97
-7.871614e-01 -4.851806e-01 2.790121e+00 116 66 37
-4.292540e-01 4.267619e-02 3.535467e+00 23 4 0
-4.292540e-01 4.267619e-02 3.535467e+00 23 4 0
-9.121969e-01 3.976026e-02 4.260339e+00 177 149 125
-8.993530e-01 -5.114333e-02 4.495199e+00 18 5 0
-4.312883e-01 -5.059687e-02 3.076004e+00 180 161 131
-5.028016e-01 -5.319327e-02 3.323451e+00 180 161 131
-5.206972e-01 -7.574214e-02 3.178016e+00 170 138 94
-5.207969e-02 -8.282903e-02 2.168520e+00 171 155 110
-5.207969e-02 -8.282903e-02 2.168520e+00 171 155 110
-1.177754e-01 -1.006459e-01 2.404223e+00 183 157 118
-1.177754e-01 -1.006459e-01 2.404223e+00 183 157 118
-3.749970e-01 -2.106414e-01 3.563317e+00 160 137 112
4.957753e-02 -6.119249e-02 1.551765e+00 160 137 112
-7.879552e-01 -1.964251e-01 2.851343e+00 150 142 129
-7.879529e-01 -1.963564e-01 2.851392e+00 150 142 129
-7.260456e-01 -2.078412e-01 2.937102e+00 130 117 111
-1.151926e-02 -1.161749e-01 1.926332e+00 83 93 83
-1.151926e-02 -1.161749e-01 1.926332e+00 83 93 83
-7.506853e-01 -2.315789e-01 2.919092e+00 33 29 18
-7.513018e-01 -3.718660e-01 2.894310e+00 29 16 6
-7.521247e-01 -4.059016e-01 2.877261e+00 121 94 67
-7.579945e-01 -4.066455e-01 2.844687e+00 47 5 0
-7.673710e-01 -5.389334e-01 2.845380e+00 25 12 1
-8.296965e-01 -5.624734e-01 2.810528e+00 184 158 120
-8.449737e-01 -5.878595e-01 2.863744e+00 198 172 124
-1.369565e+00 1.193950e-01 3.566434e+00 93 75 51
-7.941152e-01 8.866789e-02 4.061449e+00 27 23 22
-5.639496e-01 3.530394e-02 2.962420e+00 120 91 78
-6.018490e-01 1.842611e-02 2.895562e+00 126 75 41
-5.483130e-01 -1.054072e-02 2.986801e+00 166 110 89
-5.483130e-01 -1.054072e-02 2.986801e+00 166 110 89
-5.541251e-01 -2.191094e-02 2.930239e+00 121 48 1
-5.554896e-01 -2.246445e-02 2.931531e+00 121 48 1
-6.343943e-01 -3.086052e-02 2.893486e+00 158 95 59
-8.023127e-01 -2.691627e-02 2.814293e+00 12 11 11
-5.456407e-01 -8.353965e-02 4.677689e+00 29 6 0
-5.456407e-01 -8.353965e-02 4.677689e+00 29 6 0
-2.233586e+00 -5.976607e-02 6.063160e+00 14 12 14
-6.213513e-01 -7.138660e-02 3.012898e+00 49 8 1
-8.572725e-02 -7.322783e-02 1.940067e+00 164 132 91
1.560051e-01 -2.196327e-02 1.038430e+00 161 129 83
3.011923e-02 -7.375008e-02 1.683897e+00 144 140 118
-2.307018e-01 -1.902578e-01 3.045331e+00 13 12 3
-6.417136e-01 -1.994687e-01 3.093053e+00 64 61 58
-7.433144e-01 -1.912974e-01 2.894283e+00 29 24 21
4.092489e-02 -7.403601e-02 1.577620e+00 156 121 83
-8.122359e-01 -2.031461e-01 2.837620e+00 104 97 94
-7.712741e-01 -2.249967e-01 2.879858e+00 32 21 15
-7.712535e-01 -2.259668e-01 2.879905e+00 32 21 15
-7.138081e-01 -2.336156e-01 2.987136e+00 35 24 19
-7.379262e-01 -2.341824e-01 2.940814e+00 51 42 27
-7.356848e-01 -2.329292e-01 2.939964e+00 51 42 27
-7.218226e-01 -2.405075e-01 2.975617e+00 148 139 122
-7.194586e-01 -2.450450e-01 3.003995e+00 160 147 141
-7.195187e-01 -2.452175e-01 3.003946e+00 160 147 141
-7.480545e-01 -2.424663e-01 2.931865e+00 123 121 108
-6.746397e-02 -1.597261e-01 2.211584e+00 95 102 92
-7.860872e-01 -2.568046e-01 2.905325e+00 31 25 19
-6.828122e-01 -3.151917e-01 2.998672e+00 190 172 133
-7.847417e-01 -3.338585e-01 2.884866e+00 71 56 45
-7.227673e-01 -3.525651e-01 3.035174e+00 196 174 124
-7.664309e-01 -3.680992e-01 2.871084e+00 50 6 1
1.104616e-01 -7.192515e-02 1.293759e+00 35 10 1
-7.805372e-01 -3.792904e-01 2.836214e+00 43 11 0
-7.810816e-01 -3.796713e-01 2.836954e+00 43 11 0
1.374269e-01 -4.979435e-02 1.153912e+00 52 8 1
-7.814666e-01 -4.083672e-01 2.834456e+00 84 21 0
1.230500e-01 -6.636126e-02 1.232227e+00 178 139 102
-7.467966e-01 -4.433420e-01 2.932537e+00 35 29 8
-8.243929e-01 -4.132694e-01 2.902455e+00 166 97 58
-5.844704e-01 4.090958e-02 2.892000e+00 17 6 3
-7.469107e-01 -4.716117e-01 2.921588e+00 29 19 0
-6.308352e-01 -6.047857e-02 2.933421e+00 49 39 37
-6.769649e-01 -1.087385e-01 3.395429e+00 160 133 83
-7.121105e-01 -2.690612e-01 2.971863e+00 61 51 49
-7.227381e-01 -3.852482e-01 2.843735e+00 18 12 4
-6.681907e-01 -3.231857e-01 2.982437e+00 194 173 132
4.945734e+00 1.165475e+00 -4.743539e+00 178 141 99
-5.860616e-01 -3.132355e-02 3.006310e+00 101 40 4
-7.702605e-01 -2.130381e-01 2.874632e+00 128 124 112
-7.935794e-01 -5.029706e-01 2.919587e+00 19 18 18
-6.415402e-01 -1.251231e-01 3.047759e+00 12 12 12
-9.576803e-01 -2.793573e-01 2.826205e+00 39 25 14
-5.651088e-01 -3.632219e-02 2.945449e+00 192 122 67
-7.349308e-01 -2.050993e-01 2.895470e+00 129 123 105
-7.361033e-01 -2.601864e-01 2.970709e+00 143 137 113
-8.060099e-01 -4.068867e-01 2.813856e+00 147 80 32
-7.907870e-01 -4.491656e-01 2.829220e+00 52 21 14
-5.689101e-01 -3.285437e-02 3.067803e+00 8 5 5
-5.953335e-01 -6.651598e-02 3.014110e+00 176 112 55
-5.442254e-01 -2.327228e-02 2.954200e+00 174 117 84
-5.690857e-01 -4.738336e-02 3.050728e+00 141 108 98
-5.803030e-01 -6.073614e-02 3.050870e+00 30 5 2
-6.261190e-01 -4.970569e-02 2.922494e+00 34 15 11
-7.939550e-01 -1.763007e-01 2.848221e+00 22 17 14
-6.782740e-01 -2.316288e-01 3.161150e+00 178 163 111
-7.392824e-01 -2.798152e-01 2.936636e+00 48 41 38
-7.616357e-01 -4.462647e-01 2.843968e+00 68 24 3
-7.335202e-01 -2.605484e-01 2.969651e+00 120 115 92
-6.287546e-01 -6.751763e-02 2.981418e+00 40 19 16
-5.511583e-01 3.166080e-02 2.948695e+00 47 5 0
-6.079981e-01 -5.914436e-02 3.005696e+00 196 125 77
-9.568909e-01 2.595233e-02 2.884534e+00 38 23 3
-6.721651e-01 -9.347717e-02 3.179482e+00 11 6 10
-7.526497e-01 -2.548695e-01 2.928014e+00 34 34 23
-7.370720e-01 -4.333485e-01 2.968531e+00 176 157 102
-7.685399e-01 -4.925656e-01 2.938535e+00 167 144 108
-7.823861e-01 -4.986932e-01 2.769705e+00 123 68 39
-7.575248e-01 -4.117358e-01 2.985998e+00 160 137 96
-6.166357e-01 -1.570642e-02 3.152162e+00 166 146 111
-6.003692e-01 -6.437239e-02 3.009761e+00 180 124 97
-7.100815e-01 -1.870585e-01 3.189311e+00 19 16 18
-9.173174e-01 3.368617e-02 2.828296e+00 30 22 4
-7.329331e-01 -2.645874e-01 2.981292e+00 144 128 100
-7.665551e-01 -2.371137e-01 2.903684e+00 131 128 111
-7.171033e-01 -2.220017e-01 2.962229e+00 56 51 49
-5.718049e-01 -6.442429e-02 3.251318e+00 161 139 99
4.308671e-01 -1.059760e-02 2.547336e+00 160 132 93
-7.510756e-01 -2.556300e-01 2.927023e+00 34 34 23
-8.071675e-01 -2.280871e-01 2.856539e+00 39 35 31
-5.977726e-01 -5.160818e-02 3.049991e+00 149 99 48
-5.661248e-01 -2.644172e-02 3.229025e+00 158 136 83
-8.001263e-01 7.856688e-02 2.816090e+00 108 97 75
-6.746343e-01 -8.854548e-02 3.182251e+00 12 9 10
-1.453397e+00 -4.081004e-02 3.561018e+00 19 9 1
-6.117027e-01 -2.828378e-02 3.134544e+00 165 145 102
2.615633e-01 -6.423385e-03 2.541263e+00 165 141 101
-7.502703e-01 -3.602748e-01 3.034873e+00 190 167 132
-7.056479e-01 -1.284568e-01 3.223383e+00 41 29 23
-5.343282e-01 4.350413e-02 2.966591e+00 23 8 5
-5.301570e-01 3.874219e-03 2.961283e+00 179 115 85
-7.492820e-01 -2.322017e-01 2.919160e+00 37 29 18
-7.561369e-01 -2.443393e-01 2.914719e+00 137 126 112
-7.923801e-01 -3.595783e-01 3.053976e+00 35 23 16
-6.492491e-01 -4.313074e-02 2.898374e+00 27 11 3
-7.185534e-01 -2.346246e-01 3.009913e+00 34 22 23
-7.992870e-01 -3.807223e-01 3.041629e+00 175 149 97
-8.596101e-01 -3.705401e-01 2.768096e+00 20 10 0
-6.451164e-01 -7.684389e-02 3.166148e+00 10 7 3
-7.989098e-01 -4.232980e-01 2.815250e+00 55 22 9
-5.931664e-01 -2.500636e-02 3.126502e+00 161 146 107
-8.886842e-01 3.969739e-02 2.802319e+00 121 98 61
-7.996682e-01 -3.283219e-01 2.913172e+00 81 49 27
-7.742471e-01 -4.534747e-01 2.972934e+00 66 47 20
-7.770095e-01 -4.706611e-01 2.958743e+00 45 30 9
-8.780791e-01 -5.269115e-01 2.819026e+00 193 167 118
-6.066969e-01 -3.842558e-03 3.140057e+00 33 25 11
-7.117008e-01 -1.858525e-01 3.189452e+00 12 12 14
-8.031666e-01 -3.541352e-01 3.092808e+00 185 161 124
-8.267511e-01 -3.599783e-01 3.050564e+00 45 29 17
-7.584457e-01 -3.898320e-01 2.867452e+00 40 2 1
-7.575069e-01 -3.906214e-01 2.867556e+00 40 2 1
-7.998595e-01 -4.352449e-01 3.003631e+00 59 39 10
-7.664557e-01 -4.376155e-01 2.809374e+00 59 17 0
-8.878087e-01 -4.077581e-01 2.780804e+00 41 26 2
-8.320818e-01 -8.843645e-02 2.806702e+00 12 12 14
-7.666037e-01 1.103047e-01 2.825577e+00 118 89 41
-7.666037e-01 1.103047e-01 2.825577e+00 118 89 41
-6.244870e-01 -3.604655e-02 3.059842e+00 181 118 71
-8.081193e-01 -5.524088e-01 2.880590e+00 187 170 113
-5.491854e-01 -8.103936e-03 2.925121e+00 192 126 80
-5.798359e-01 -4.141341e-02 2.999809e+00 90 32 3
-6.799210e-01 -5.644888e-02 3.012037e+00 204 131 89
-7.403982e-01 -2.308003e-01 3.196528e+00 52 37 17
-7.271301e-01 -2.229028e-01 2.951180e+00 45 38 33
-5.422027e-01 -2.289625e-02 3.050587e+00 15 13 12
-8.652810e-01 6.529065e-02 2.876013e+00 119 97 54
-7.995655e-01 -3.663274e-01 2.825601e+00 75 50 19
-7.789448e-01 -3.594121e-02 2.815324e+00 55 57 56
-7.843655e-01 -4.299785e-01 2.824842e+00 66 23 3
-5.843484e-01 5.039057e-03 3.149948e+00 147 130 92
-5.854578e-01 -4.148993e-02 3.062869e+00 132 93 61
-6.696053e-01 -9.139968e-02 3.208284e+00 12 6 0
-6.391351e-01 -4.520133e-02 2.914078e+00 24 6 2
-7.271043e-01 -2.342047e-01 2.951060e+00 85 86 75
-8.810803e-01 -3.381712e-01 2.785176e+00 30 17 1
-7.567443e-01 -4.059847e-01 2.860850e+00 146 104 61
-7.678182e-01 -4.034242e-01 2.834534e+00 37 0 0
-8.470632e-01 -9.529090e-02 2.728922e+00 40 33 29
-6.515399e-01 -6.284122e-02 3.189323e+00 151 134 94
-8.953197e-01 -3.548353e-02 2.770629e+00 36 26 14
-5.420907e-01 -2.193831e-03 2.996268e+00 129 74 46
-7.259895e-01 -1.070215e-01 3.249119e+00 33 24 1
-7.510510e-01 -1.187494e-01 3.151805e+00 9 8 1
-7.763186e-01 -1.694081e-01 2.851829e+00 35 29 29
-7.707706e-01 -2.573634e-01 2.893856e+00 33 31 25
-8.554690e-01 -3.414496e-01 3.105908e+00 47 35 20
-7.572073e-01 -4.063496e-01 2.859166e+00 162 106 73
-7.600518e-01 -4.405125e-01 2.825513e+00 182 122 74
-7.632495e-01 -4.248020e-01 2.832795e+00 189 125 71
-6.510369e-01 1.376097e-02 3.164912e+00 28 23 19
-6.069934e-01 -7.718907e-03 3.110271e+00 5 7 5
-8.023125e-01 -3.375897e-01 2.936219e+00 90 54 30
-5.271801e-01 2.913345e-02 2.958176e+00 131 90 74
-5.388935e-01 1.351278e-02 2.983289e+00 121 81 56
-5.532852e-01 1.223098e-02 3.002203e+00 58 16 0
-5.532852e-01 1.223098e-02 3.002203e+00 58 16 0
-8.131083e-01 4.856647e-02 2.806689e+00 97 82 66
-7.222059e-01 -9.921947e-02 3.228229e+00 20 9 1
-7.487914e-01 -1.249942e-01 3.249095e+00 54 45 18
-7.304134e-01 -2.427132e-01 2.959206e+00 59 50 42
-7.845523e-01 -2.910809e-01 3.228930e+00 185 160 94
-8.723874e-01 -1.415232e-02 2.778591e+00 32 29 25
-7.330681e-01 -2.115646e-01 2.872855e+00 111 99 81
-7.822232e-01 -4.830690e-01 2.791716e+00 112 61 36
-5.792171e-01 -2.838179e-02 3.005221e+00 157 96 44
-6.916054e-01 -8.512081e-02 3.231843e+00 164 147 110
-8.060258e-01 -4.532584e-01 2.798541e+00 138 90 54
-7.955483e-01 -4.512226e-01 2.794046e+00 138 90 54
-6.001964e-01 -5.631740e-02 3.026523e+00 160 114 76
-8.613339e-01 7.833374e-03 2.777671e+00 34 22 3
-7.534757e-01 -1.807666e-01 2.873588e+00 37 33 31
-7.421191e-01 -4.237829e-01 2.999491e+00 138 121 78
-8.272094e-01 -4.823457e-01 2.754795e+00 175 156 104
-7.679768e-01 -4.798390e-01 2.994784e+00 171 146 89
-8.693445e-01 1.636135e-02 2.777423e+00 132 115 73
-5.754001e-01 3.205280e-02 2.994919e+00 18 6 1
-6.065011e-01 -2.621618e-02 3.011395e+00 158 99 52
-5.791275e-01 2.512423e-02 3.024444e+00 21 10 3
-5.510090e-01 -4.333665e-04 2.997397e+00 136 82 45
-5.823533e-01 -4.821867e-02 2.995838e+00 174 116 102
-7.572468e-01 -1.322023e-01 3.246283e+00 51 40 27
-8.192680e-01 -3.863808e-01 3.033416e+00 145 122 84
-8.343847e-01 -2.185161e-01 2.785251e+00 35 33 32
-8.843032e-01 -2.975917e-01 2.760255e+00 182 152 88
-7.766774e-01 -4.728528e-01 2.877625e+00 8 8 7
-6.731255e-01 -4.325092e-02 3.197284e+00 126 100 52
-7.904048e-01 -3.598889e-01 2.911453e+00 29 16 5
-8.174923e-01 2.098452e-02 2.816149e+00 20 21 17
-8.281545e-01 -3.902829e-01 3.020078e+00 25 18 1
-8.096939e-01 -4.265545e-01 2.763269e+00 160 133 82
-8.062598e-01 -5.713007e-01 2.845318e+00 204 176 122
-8.202085e-01 3.162162e-02 2.803256e+00 132 116 88
-6.918056e-01 -1.619562e-01 3.240208e+00 41 29 9
-8.750606e-01 7.654480e-05 2.768778e+00 158 132 91
-7.888932e-01 -3.394525e-01 2.887023e+00 22 4 0
-8.357958e-01 -3.240800e-01 2.794968e+00 40 20 1
-8.761675e-01 -3.680948e-01 2.776996e+00 138 117 89
-8.303742e-01 -5.500015e-01 2.885266e+00 186 164 120
-5.548424e-01 6.952476e-03 3.028639e+00 20 6 1
-5.470380e-01 -3.274008e-02 2.982016e+00 155 87 54
-8.340117e-01 -6.953929e-02 2.825314e+00 3 3 5
-7.428163e-01 -2.687130e-01 2.968215e+00 141 132 109
-8.659006e-01 -2.495215e-01 2.773021e+00 44 27 15
-8.025978e-01 -4.475036e-01 2.761424e+00 29 10 1
-7.438255e-01 8.356822e-02 2.829915e+00 136 108 59
-7.409524e-01 6.450057e-02 2.841705e+00 22 12 4
-7.990946e-01 -3.399150e-01 2.935949e+00 93 48 22
-8.172710e-01 -3.369017e-01 2.764628e+00 176 144 93
-7.949905e-01 -3.446421e-01 2.760809e+00 170 139 92
-5.686094e-01 -2.913176e-02 3.004698e+00 167 106 60
-7.494600e-01 3.791094e-02 2.778834e+00 17 8 1
-7.785928e-01 -1.752827e-01 2.849911e+00 108 100 93
-7.587982e-01 -2.810539e-01 2.949657e+00 32 26 28
-8.433968e-01 -2.774437e-01 2.768474e+00 182 155 117
-7.599478e-01 -3.658619e-01 2.860172e+00 51 2 0
-8.217900e-01 -3.516529e-01 2.769471e+00 54 28 6
-7.639010e-01 -4.325708e-01 2.846338e+00 178 112 68
-7.909343e-01 -4.490150e-01 2.793330e+00 131 101 79
-5.679652e-01 -1.762239e-02 3.013186e+00 99 44 2
-9.067020e-01 -2.310726e-01 2.763356e+00 155 133 94
-7.631467e-01 -4.420089e-01 2.964972e+00 73 65 51
-7.480845e-01 -2.674902e-01 2.951568e+00 135 132 113
-6.297594e-01 -6.964546e-02 3.036206e+00 26 7 0
-7.306977e-01 -2.184865e-01 2.860962e+00 121 109 97
-7.439397e-01 -1.920290e-01 2.881658e+00 36 34 32
-8.023233e-01 -4.433043e-01 2.998811e+00 47 32 3
-7.501355e-01 1.159368e-01 2.849722e+00 14 9 7
-7.658949e-01 -4.558328e-01 2.875575e+00 58 14 0
-7.777831e-01 -4.116118e-01 2.871373e+00 147 76 25
-8.306200e-01 3.610237e-02 2.807354e+00 141 118 67
-8.289046e-01 -3.062644e-01 2.772400e+00 167 140 89
-8.438875e-01 1.275214e-02 2.775745e+00 153 130 90
-8.519529e-01 -4.370030e-02 2.762624e+00 26 18 14
-7.895494e-01 8.536088e-02 2.840001e+00 136 111 69
-5.729677e-01 -3.095965e-02 2.979494e+00 164 93 62
-6.639384e-01 -2.172536e-02 2.871591e+00 59 31 21
-7.593663e-01 -2.374982e-01 2.876229e+00 35 30 25
-7.593663e-01 -2.374982e-01 2.876229e+00 35 30 25
-8.299939e-01 -4.601225e-02 2.840659e+00 9 8 6
-9.285708e-01 -3.792187e-02 2.767374e+00 169 140 101
-6.031454e-01 -6.316726e-02 2.976194e+00 21 0 0
-8.910753e-01 -1.211936e-02 2.774250e+00 47 31 13
-7.472958e-01 -2.043992e-01 2.889607e+00 114 107 89
-6.272986e-01 2.479136e-02 2.891741e+00 22 5 1
-5.961278e-01 -5.514698e-02 2.994643e+00 28 7 3
-6.049530e-01 -5.176418e-02 2.933813e+00 178 126 89
-8.563875e-01 -1.283965e-01 2.753420e+00 62 46 27
-7.646023e-01 -2.246793e-01 2.894155e+00 37 29 18
-1.081453e+00 -2.693356e-01 3.076853e+00 38 25 11
-8.564824e-01 -3.602933e-01 2.780558e+00 27 15 3
-8.144796e-01 -5.056967e-01 2.771168e+00 196 171 122
-9.112409e-01 -3.099487e-02 2.766577e+00 167 140 97
-7.083477e-01 4.275131e-02 2.866747e+00 12 16 15
-9.375236e-01 -1.347383e-01 2.774218e+00 54 41 24
-9.729584e-01 1.091897e-01 2.762543e+00 168 140 101
-6.402189e-01 -8.689241e-02 3.064094e+00 17 17 15
-5.567215e-01 -4.744146e-02 2.976688e+00 92 21 3
-5.731552e-01 -5.003524e-02 2.997491e+00 185 130 110
-7.525273e-01 -2.201612e-01 2.910369e+00 152 147 132
-8.551051e-01 -4.078529e-01 2.762381e+00 164 140 104
-1.261474e+00 1.922373e-01 2.673615e+00 145 111 53
-8.813228e-01 -4.793972e-01 2.977214e+00 166 144 92
-1.333966e+00 2.243003e-01 2.692127e+00 23 2 0
-8.720387e-01 -3.197556e-03 2.780138e+00 30 11 1
-7.607131e-01 -1.908341e-01 2.866304e+00 44 39 31
-7.206788e-01 -2.598401e-01 2.979237e+00 132 123 102
-1.209818e+00 -4.958925e-02 2.785489e+00 169 140 100
-7.701593e-01 -2.208961e-01 2.881810e+00 30 25 21
-8.462713e-01 -3.651961e-01 2.771284e+00 167 143 107
-7.916696e-01 -5.102114e-01 2.803219e+00 19 16 10
-7.345595e-01 -4.305841e-01 2.824989e+00 217 141 96
-7.763701e-01 3.418977e-02 2.825773e+00 55 43 36
-8.028483e-01 -3.340664e-01 2.839304e+00 8 7 2
-8.488758e-01 -4.475238e-01 2.778798e+00 21 8 0
-1.059822e+00 1.513217e-01 2.733456e+00 170 138 104
-1.093523e+00 1.589060e-01 2.762212e+00 18 6 0
-1.097438e+00 1.283788e-01 2.767320e+00 28 11 4
-6.296841e-01 -5.847742e-02 2.964831e+00 37 11 3
-6.238434e-01 -5.196875e-02 2.929007e+00 180 121 89
-8.019282e-01 2.495475e-02 2.812494e+00 56 41 28
-8.480326e-01 1.779234e-02 2.789610e+00 23 10 2
-8.927803e-01 -3.326763e-02 2.772572e+00 27 10 1
-7.851822e-01 -2.562928e-01 2.774516e+00 183 158 115
-8.492761e-01 -3.296978e-01 2.781296e+00 62 41 6
-8.656626e-01 -3.198927e-01 2.781550e+00 62 41 6
-7.426074e-01 -4.220675e-01 2.843707e+00 176 110 70
-7.979127e-01 -4.458894e-01 2.785633e+00 20 10 0
-8.195851e-01 3.536398e-02 2.802997e+00 165 141 99
-5.818733e-01 -3.768367e-02 2.956868e+00 168 97 51
-8.872357e-01 -1.808701e-02 2.774888e+00 47 33 23
-9.090666e-01 -3.095261e-01 3.107027e+00 158 134 94
-7.686060e-01 -3.678505e-01 2.849477e+00 165 100 84
-5.535140e-01 -2.563591e-02 2.921073e+00 126 53 10
-3.643326e-01 -2.958718e-02 2.759171e+00 177 153 119
-7.310458e-01 -1.087554e-01 3.135118e+00 5 3 4
-6.746205e-01 -3.508893e-02 2.882741e+00 154 97 57
-7.467594e-01 -2.714712e-01 2.977460e+00 29 27 11
-7.495268e-01 -2.646174e-01 2.951882e+00 143 137 121
-8.524506e-01 -3.017040e-01 2.817589e+00 17 11 2
-7.783542e-01 -4.297322e-01 2.930550e+00 5 6 6
-8.516632e-01 -2.819075e-01 2.865872e+00 5 5 3
-8.088748e-01 -3.676923e-01 2.773856e+00 179 157 102
-7.418539e-01 -5.212413e-01 2.764624e+00 206 181 125
-8.361817e-01 -3.673598e-01 2.797464e+00 20 7 3
-7.672321e-01 -1.803602e-01 2.869278e+00 103 95 93
-7.569079e-01 -3.758639e-01 2.803855e+00 84 70 58
-9.186614e-01 -5.107327e-01 2.877487e+00 182 163 123
-7.285343e-01 -4.198213e-01 2.847807e+00 54 7 0
-1.107051e+00 1.555253e-01 2.739464e+00 161 136 101
-8.935585e-01 1.569805e-02 2.786668e+00 49 31 9
-9.263214e-01 4.164713e-03 2.767633e+00 167 137 93
-7.351859e-01 -1.983644e-01 2.915756e+00 32 29 25
-7.408644e-01 -2.690967e-01 2.986117e+00 133 122 110
-8.401708e-01 -1.853117e-01 2.834269e+00 104 99 94
-7.860641e-01 -2.157423e-01 2.918023e+00 30 24 24
-8.011938e-01 -1.880158e-01 2.856986e+00 131 120 102
-8.011938e-01 -1.880158e-01 2.856986e+00 131 120 102
-7.487107e-01 -4.209448e-01 2.823574e+00 208 139 90
-8.729922e-01 -3.171593e-01 2.791020e+00 16 7 1
-9.251390e-01 -2.158930e-01 2.790834e+00 40 25 17
-8.004356e-01 -3.341525e-01 2.840373e+00 25 7 3
-9.381280e-01 -4.109097e-01 2.979025e+00 118 100 60
-8.790526e-01 -1.207104e-01 2.803327e+00 20 18 21
-8.748857e-01 -1.232307e-01 2.803773e+00 20 18 21
-7.319171e-01 -2.040067e-01 2.935780e+00 111 106 96
-7.928817e-01 3.289200e-02 2.803231e+00 168 140 90
-7.971075e-01 -4.012476e-01 2.824932e+00 217 141 96
-8.186688e-01 5.138891e-02 2.829205e+00 58 44 32
-6.740902e-01 -2.983193e-02 3.002135e+00 141 84 47
-8.286472e-01 -5.616853e-03 2.782382e+00 171 150 115
-7.661794e-01 -4.757056e-01 2.914214e+00 3 3 1
-7.498860e-01 -2.009476e-01 2.904211e+00 119 114 102
-8.169358e-01 -5.343783e-01 2.792965e+00 192 169 120
-7.482803e-01 -2.651264e-01 2.952355e+00 141 129 113
-7.573104e-01 -4.475329e-01 2.864783e+00 87 33 0
-1.060932e+00 1.489541e-01 2.761295e+00 172 143 110
-7.912635e-01 -3.406334e-01 2.943042e+00 85 58 35
-9.346159e-01 -4.970194e-01 2.885078e+00 176 154 108
-8.016022e-01 -5.684823e-01 2.814201e+00 168 149 110
-7.859647e-01 -2.154188e-01 2.918112e+00 76 70 58
-7.911253e-01 -6.094182e-02 2.842686e+00 18 17 17
-8.394460e-01 -4.325953e-01 2.764422e+00 200 170 109
-7.803832e-01 -3.588102e-01 2.846683e+00 175 113 98
-8.192649e-01 -4.110639e-01 2.789035e+00 32 10 0
-8.836313e-01 -2.873976e-01 2.802637e+00 51 35 4
-8.330076e-01 -4.605793e-01 2.765515e+00 215 188 126
-9.736501e-01 7.373318e-02 2.769361e+00 12 0 0
-7.565361e-01 -4.633572e-01 2.855902e+00 24 1 0
-6.502964e-01 -2.588428e-01 2.972235e+00 50 43 41
-8.581154e-01 -3.619398e-02 2.819048e+00 52 48 49
-8.581154e-01 -3.619398e-02 2.819048e+00 52 48 49
-9.086703e-01 -3.376959e-01 3.021733e+00 80 71 50
-8.887519e-01 -2.701361e-01 2.877677e+00 65 51 42
-8.740664e-01 -5.308194e-01 2.818719e+00 175 156 115
1.315720e+01 -1.241695e+01 5.718649e+00 11 1 0
-8.588292e-01 -3.576353e-01 2.767049e+00 190 162 104
-8.367242e-01 -2.879696e-01 2.827844e+00 19 19 14
-8.145852e-01 -3.270281e-01 2.830058e+00 22 8 1
-1.162613e+00 -2.999266e-01 2.799708e+00 185 160 122
-1.089686e+00 1.565801e-01 2.742371e+00 19 9 2
-7.398672e-01 -2.530175e-01 2.942983e+00 44 31 22
-7.380253e-01 -4.370089e-01 2.844979e+00 153 73 26
-8.270226e-01 -6.652826e-02 2.774243e+00 187 160 112
-8.187476e-01 -4.109028e-01 2.788401e+00 32 10 0
-9.992096e-01 1.146643e-01 2.756227e+00 12 5 3
-8.792464e-01 -3.318034e-02 2.771843e+00 182 153 108
-8.096299e-01 -3.369106e-01 2.829387e+00 23 4 0
-8.268906e-01 -3.354318e-01 2.816430e+00 33 10 2
-8.057819e-01 -3.567540e-01 2.830404e+00 105 72 59
-7.916973e-01 -3.609081e-01 2.815720e+00 126 102 85
-8.144091e-01 -3.723974e-01 2.797946e+00 148 125 92
-8.276824e-01 -3.612155e-01 2.787185e+00 96 72 29
-8.168520e-01 -5.652354e-01 2.817116e+00 172 156 113
-7.487081e-01 -2.141171e-01 2.900331e+00 94 87 79
-1.013675e+00 -2.592556e-01 2.999535e+00 150 133 97
-8.713853e-01 -3.373261e-01 2.773979e+00 193 168 120
-9.053541e-01 -2.480557e-01 2.804331e+00 28 15 5
-7.812079e-01 -4.857807e-01 2.858718e+00 16 6 2
-7.748269e-01 -9.417963e-02 2.797253e+00 26 14 2
-7.921563e-01 -9.156124e-02 2.786052e+00 182 153 108
-9.563104e-01 -1.468903e-01 2.774957e+00 57 41 26
-8.426711e-01 -3.556344e-01 2.790149e+00 95 70 30
-8.542681e-01 -3.510578e-01 2.769157e+00 159 128 74
-7.973941e-01 -3.711486e-01 2.821553e+00 64 16 0
-8.136983e-01 -4.151764e-01 2.789935e+00 42 11 1
-8.370990e-01 -3.690098e-01 2.809680e+00 183 103 42
-8.189894e-01 -3.950904e-01 2.796901e+00 16 3 1
-8.189894e-01 -3.950904e-01 2.796901e+00 16 3 1
-7.505169e-01 -1.833932e-01 2.811455e+00 40 29 18
-7.588533e-01 -2.109456e-01 2.884578e+00 79 67 58
-8.164577e-01 -3.336897e-01 2.807918e+00 182 155 107
-8.419735e-01 -3.271905e-01 2.814410e+00 137 106 78
1.664204e-01 -1.937464e-02 9.980391e-01 0 255 0
1.889545e-01 -1.087248e-02 9.542222e-01 255 255 0
1.649819e-01 -2.091435e-02 1.004748e+00 255 0 0
1.874825e-01 -1.277793e-02 9.608448e-01 255 255 0
2.252760e-01 -3.303794e-03 1.028276e+00 0 255 0
2.496028e-01 5.588713e-03 9.855080e-01 255 255 0
-1.624953e+00 -3.224834e-01 4.790068e+00 255 0 0
-1.606018e+00 -3.235343e-01 4.743804e+00 255 255 0
-1.688221e+00 -2.701744e-01 4.730001e+00 0 255 0
-1.667456e+00 -2.721692e-01 4.684560e+00 255 255 0
5.328856e-01 4.659539e-02 1.238956e+00 255 0 0
5.647978e-01 5.553820e-02 1.201518e+00 255 255 0
-1.780845e+00 -3.467897e-01 4.683458e+00 0 255 0
-1.757416e+00 -3.468255e-01 4.639287e+00 255 255 0
-1.836236e+00 -3.373409e-01 4.641366e+00 255 0 0
-1.811665e+00 -3.382440e-01 4.597829e+00 255 255 0
-1.891437e+00 -3.301538e-01 4.585954e+00 0 255 0
-1.865577e+00 -3.323681e-01 4.543218e+00 255 255 0
6.503542e-01 -7.260923e-02 1.362357e+00 255 0 0
6.852173e-01 -6.548055e-02 1.327232e+00 255 255 0
-1.976601e+00 -2.203401e-01 4.499412e+00 0 255 0
-1.948191e+00 -2.241267e-01 4.458441e+00 255 255 0
-2.026724e+00 -2.033507e-01 4.457162e+00 255 0 0
-1.996986e+00 -2.073817e-01 4.417170e+00 255 255 0
-2.105394e+00 -1.557965e-01 4.406823e+00 0 255 0
-2.074039e+00 -1.608082e-01 4.368199e+00 255 255 0
-2.201130e+00 -1.658694e-01 4.335056e+00 255 0 0
-2.167122e+00 -1.707194e-01 4.298725e+00 255 255 0
1.012602e+00 -1.997886e-01 1.681987e+00 0 255 0
1.054591e+00 -1.964063e-01 1.655052e+00 255 255 0
-2.389142e+00 -1.220570e-01 4.166300e+00 255 0 0
-2.351062e+00 -1.272434e-01 4.134315e+00 255 255 0
-2.441490e+00 -8.315108e-02 4.106754e+00 0 255 0
-2.402008e+00 -8.924898e-02 4.076687e+00 255 255 0
-2.482876e+00 -1.140091e-01 4.033400e+00 255 0 0
-2.442201e+00 -1.192537e-01 4.004798e+00 255 255 0
-2.532342e+00 -1.340742e-02 3.937015e+00 0 255 0
-2.490773e+00 -2.148557e-02 3.910430e+00 255 255 0
-2.567549e+00 3.733403e-02 3.886506e+00 255 0 0
-2.524899e+00 2.840143e-02 3.861986e+00 255 255 0
-2.643480e+00 2.998334e-02 3.756659e+00 0 255 0
-2.599062e+00 2.134601e-02 3.735388e+00 255 255 0
-2.699839e+00 9.788400e-02 3.630439e+00 255 0 0
-2.654659e+00 8.793879e-02 3.611469e+00 255 255 0
-2.748523e+00 1.426973e-01 3.370018e+00 0 255 0
-2.701459e+00 1.319469e-01 3.357002e+00 255 255 0
-2.686767e+00 1.621147e-01 3.153750e+00 255 0 0
-2.639079e+00 1.494016e-01 3.145736e+00 255 255 0
-2.633648e+00 2.548223e-01 3.122220e+00 0 255 0
-2.586618e+00 2.396291e-01 3.114649e+00 255 255 0
1.280680e+00 -1.036392e-01 2.455405e+00 255 0 0
1.329696e+00 -9.864856e-02 2.446889e+00 255 255 0
-2.730280e+00 1.537538e-01 3.285874e+00 0 255 0
-2.682916e+00 1.422465e-01 3.274727e+00 255 255 0
-2.593598e+00 2.738882e-01 3.052536e+00 255 0 0
-2.546484e+00 2.582040e-01 3.046676e+00 255 255 0
-2.540557e+00 2.880024e-01 2.975500e+00 0 255 0
-2.493436e+00 2.717539e-01 2.971553e+00 255 255 0
1.105802e+00 -3.799519e-01 2.936210e+00 255 0 0
1.155748e+00 -3.812060e-01 2.938159e+00 255 255 0
-2.438050e+00 3.356508e-01 2.815572e+00 0 255 0
-2.391763e+00 3.167603e-01 2.816375e+00 255 255 0
-2.356117e+00 4.077769e-01 2.806614e+00 255 0 0
-2.311020e+00 3.861890e-01 2.807058e+00 255 255 0
-2.281511e+00 4.163886e-01 2.780718e+00 0 255 0
-2.237166e+00 3.934566e-01 2.783490e+00 255 255 0
-2.238266e+00 4.183007e-01 2.736014e+00 255 0 0
-2.194402e+00 3.947805e-01 2.740780e+00 255 255 0
-2.198693e+00 4.301645e-01 2.710498e+00 0 255 0
-2.155227e+00 4.061213e-01 2.716205e+00 255 255 0
-2.162619e+00 4.544556e-01 2.679455e+00 255 0 0
-2.119908e+00 4.291219e-01 2.685282e+00 255 255 0
-2.111740e+00 4.784741e-01 2.636891e+00 0 255 0
-2.070593e+00 4.512471e-01 2.644990e+00 255 255 0
-2.128753e+00 4.746759e-01 2.656300e+00 255 0 0
-2.087077e+00 4.481173e-01 2.663898e+00 255 255 0
-2.047412e+00 5.067181e-01 2.572207e+00 0 255 0
-2.007361e+00 4.781434e-01 2.581117e+00 255 255 0
-2.080882e+00 4.812312e-01 2.619025e+00 255 0 0
-2.040398e+00 4.529655e-01 2.626908e+00 255 255 0
-2.027219e+00 4.899315e-01 2.557267e+00 0 255 0
-1.988355e+00 4.601317e-01 2.567344e+00 255 255 0
-2.034624e+00 4.763787e-01 2.568272e+00 255 0 0
-1.995883e+00 4.465558e-01 2.578745e+00 255 255 0
-2.017065e+00 4.644444e-01 2.563894e+00 0 255 0
-1.978551e+00 4.344096e-01 2.574598e+00 255 255 0
-2.000753e+00 4.767864e-01 2.521956e+00 255 0 0
-1.963115e+00 4.464285e-01 2.534676e+00 255 255 0
