ply
format ascii 1.0
element vertex 188
property float x
property float y
property float z
property uchar diffuse_red
property uchar diffuse_green
property uchar diffuse_blue
end_header
-2.188274e-01 -5.782452e-01 3.142810e+00 202 172 110
-8.536528e-01 -6.392642e-01 2.852537e+00 46 18 5
-8.536528e-01 -6.392642e-01 2.852537e+00 46 18 5
-2.044332e-01 -1.632589e-01 3.441036e+00 182 151 87
-6.734552e-01 -5.098891e-01 2.984634e+00 25 23 20
-3.711309e-01 1.298294e-01 3.018988e+00 156 90 40
1.290180e-01 1.098676e-01 3.511350e+00 173 144 83
-4.057284e-01 -1.735457e-01 3.198454e+00 24 22 23
-7.232582e-01 -2.629291e-01 2.996479e+00 110 101 91
-7.048173e-01 -2.624556e-01 2.928071e+00 110 101 91
-5.388931e-01 -5.918018e-01 3.034238e+00 202 173 107
-7.724978e-01 -8.888291e-01 2.827799e+00 18 13 9
-9.909684e-02 2.309349e-01 3.309160e+00 177 143 82
-1.307237e-01 1.120354e-01 3.641915e+00 41 23 15
-4.804667e-01 -3.522734e-01 3.155232e+00 44 40 43
3.313795e-01 -1.764842e-01 2.408836e+00 25 14 10
-7.951209e-01 -6.398853e-01 2.800318e+00 138 71 29
-6.495267e-01 -7.504999e-01 2.931049e+00 13 3 1
-1.710736e-01 1.680266e-01 3.431376e+00 64 34 10
-2.036207e-01 1.066284e-01 3.220479e+00 165 130 75
-3.316404e-01 7.346151e-02 3.072913e+00 192 123 74
3.614355e-01 5.801255e-02 3.565777e+00 162 130 69
3.614355e-01 5.801255e-02 3.565777e+00 162 130 69
3.831783e-01 -5.389097e-02 2.947744e+00 174 140 74
-5.595296e-01 -4.769347e-01 3.107175e+00 58 49 50
-3.993222e-01 2.367012e-01 2.969175e+00 14 3 1
-4.556957e-01 2.269955e-01 2.913300e+00 11 7 7
-3.916325e-01 1.957721e-01 2.955696e+00 147 91 43
-5.692968e-02 1.564870e-01 3.451749e+00 169 139 84
-3.078069e-01 -1.603776e-01 3.281322e+00 190 163 102
-5.991704e-01 -7.778247e-01 2.969313e+00 200 174 116
-8.333067e-01 -7.935753e-01 2.759280e+00 12 4 1
2.540008e-01 -4.761769e-02 3.998224e-01 168 139 84
-6.509714e-01 -2.431718e-01 2.922913e+00 119 113 91
3.820089e-01 -2.955375e-01 3.038353e+00 19 11 2
-6.805849e-01 -6.792123e-01 2.889761e+00 197 133 91
-6.394028e-01 -8.652852e-01 2.905157e+00 202 175 122
-1.872444e-01 1.143229e-01 3.446842e+00 170 142 96
-2.779772e-01 -2.153032e-02 3.279200e+00 181 157 113
3.634979e-01 -1.253054e-01 3.771471e+00 17 9 0
-5.799874e-01 -3.440863e-01 3.017134e+00 144 134 116
-6.039416e-01 -6.623705e-01 3.000011e+00 165 140 99
-7.559575e-01 -6.555197e-01 2.810425e+00 173 104 63
-7.490752e-01 -6.687862e-01 2.735504e+00 47 16 1
-8.261238e-01 -7.223783e-01 2.769117e+00 98 53 31
-6.906165e-01 -7.401493e-01 2.854556e+00 39 5 2
-6.936511e-01 -7.837798e-01 2.855953e+00 186 137 97
-6.937907e-01 -7.835738e-01 2.855941e+00 186 137 97
-7.871951e-01 -8.158818e-01 2.776135e+00 116 66 37
2.229836e-01 2.969349e-01 3.821751e+00 23 4 0
2.229836e-01 2.969349e-01 3.821751e+00 23 4 0
-2.157882e-01 2.542462e-01 3.817376e+00 177 149 125
-1.054476e-01 1.323299e-01 3.966939e+00 18 5 0
8.033944e-03 9.108519e-02 3.296491e+00 180 161 131
-2.802129e-03 9.767094e-02 3.510221e+00 180 161 131
-1.137262e-01 4.943676e-02 3.400638e+00 170 138 94
4.123267e-01 -6.335793e-02 2.841819e+00 171 155 110
4.123267e-01 -6.335793e-02 2.841819e+00 171 155 110
3.623373e-01 -8.314481e-02 3.107782e+00 183 157 118
3.623373e-01 -8.314481e-02 3.107782e+00 183 157 118
3.442918e-01 -1.771610e-01 3.782915e+00 160 137 112
2.920837e-01 -1.029079e-01 1.663376e+00 160 137 112
-7.582354e-01 -2.206665e-01 2.848513e+00 150 142 129
-7.582354e-01 -2.206665e-01 2.848513e+00 150 142 129
-5.991862e-01 -2.339349e-01 2.980128e+00 130 117 111
4.013009e-01 -2.635750e-01 2.935451e+00 83 93 83
4.013009e-01 -2.635750e-01 2.935451e+00 83 93 83
-6.510017e-01 -2.844341e-01 2.945883e+00 33 29 18
-6.581048e-01 -5.631424e-01 2.918982e+00 29 16 6
-6.711360e-01 -6.350319e-01 2.906190e+00 121 94 67
-6.944009e-01 -6.396739e-01 2.847933e+00 47 5 0
-7.132432e-01 -9.026817e-01 2.870885e+00 25 12 1
-8.460327e-01 -9.499920e-01 2.806621e+00 184 158 120
-8.281362e-01 -9.781454e-01 2.871468e+00 198 172 124
-1.311819e+00 3.739569e-01 3.680974e+00 93 75 51
-1.390453e-01 3.358458e-01 3.792526e+00 27 23 22
-3.031175e-01 2.432952e-01 3.039117e+00 120 91 78
-4.096346e-01 2.060318e-01 2.949428e+00 126 75 41
-2.573822e-01 1.583806e-01 3.068557e+00 166 110 89
-2.573822e-01 1.583806e-01 3.068557e+00 166 110 89
-3.091055e-01 1.228125e-01 3.012017e+00 121 48 1
-3.091055e-01 1.228125e-01 3.012017e+00 121 48 1
-4.641185e-01 1.138181e-01 2.930582e+00 158 95 59
-8.135098e-01 1.084378e-01 2.806168e+00 12 11 11
4.455990e-01 1.101051e-01 4.393051e+00 29 6 0
4.455990e-01 1.101051e-01 4.393051e+00 29 6 0
-1.053921e+00 1.434585e-01 4.837376e+00 14 12 14
-3.772638e-01 4.155731e-02 3.102745e+00 49 8 1
1.204662e-01 -6.886273e-02 2.389888e+00 164 132 91
2.167705e-01 -6.939382e-03 -8.395423e-01 161 129 83
3.473238e-01 -1.373236e-01 2.268623e+00 144 140 118
4.129195e-01 -2.059643e-01 3.479280e+00 13 12 3
-3.676386e-01 -2.048589e-01 3.235998e+00 64 61 58
-6.514062e-01 -2.068347e-01 2.913527e+00 29 24 21
2.842673e-01 -1.700156e-01 1.956680e+00 156 121 83
-8.139022e-01 -2.436709e-01 2.828657e+00 104 97 94
-7.067084e-01 -2.734380e-01 2.886558e+00 32 21 15
-7.067084e-01 -2.734380e-01 2.886558e+00 32 21 15
-5.452331e-01 -2.839537e-01 3.043041e+00 35 24 19
-6.104191e-01 -2.848605e-01 2.974318e+00 51 42 27
-6.105561e-01 -2.853657e-01 2.975087e+00 51 42 27
-5.641284e-01 -2.976126e-01 3.021499e+00 148 139 122
-5.371312e-01 -3.063961e-01 3.051554e+00 160 147 141
-5.369438e-01 -3.064081e-01 3.051603e+00 160 147 141
-6.372980e-01 -3.067541e-01 2.959215e+00 123 121 108
3.956616e-01 -3.048621e-01 2.879216e+00 95 102 92
-7.160291e-01 -3.362683e-01 2.908088e+00 31 25 19
-4.849976e-01 -4.428863e-01 3.095689e+00 190 172 133
-7.369953e-01 -4.921632e-01 2.936215e+00 71 56 45
-5.418015e-01 -5.137467e-01 3.137745e+00 196 174 124
-7.017014e-01 -5.601220e-01 2.898434e+00 50 6 1
4.031932e-01 -5.120878e-01 2.634172e+00 35 10 1
-7.417992e-01 -5.857199e-01 2.832092e+00 43 11 0
-7.426225e-01 -5.872316e-01 2.833273e+00 43 11 0
3.655835e-01 -4.228129e-01 1.633076e+00 52 8 1
-7.412292e-01 -6.435418e-01 2.826836e+00 84 21 0
4.073224e-01 -5.584237e-01 2.392552e+00 178 139 102
-6.253216e-01 -6.961772e-01 2.975153e+00 35 29 8
-6.858888e-01 -9.054540e-01 2.900121e+00 178 155 115
-7.889628e-01 -6.543006e-01 2.917109e+00 166 97 58
-3.801522e-01 2.461403e-01 2.938564e+00 17 6 3
-6.277147e-01 -7.699426e-01 2.944060e+00 29 19 0
-4.310615e-01 5.708709e-02 2.981135e+00 49 39 37
-2.224812e-01 3.062814e-02 3.625571e+00 160 133 83
-5.428262e-01 -3.539093e-01 3.011547e+00 61 51 49
-6.449810e-01 -5.907414e-01 2.896775e+00 18 12 4
-4.787431e-01 -4.613246e-01 3.089439e+00 194 173 132
1.162333e+00 5.002646e-01 4.701365e-01 178 141 99
-2.746173e-01 1.368959e-01 3.013153e+00 101 40 4
-7.035250e-01 -2.512446e-01 2.866181e+00 128 124 112
-7.126511e-01 -8.380227e-01 2.931620e+00 19 18 18
-3.835297e-01 -5.373569e-02 3.136850e+00 12 12 12
-1.071340e+00 -3.909191e-01 2.751138e+00 39 25 14
-3.233601e-01 9.792034e-02 3.033144e+00 192 122 67
-6.340484e-01 -2.333169e-01 2.915741e+00 129 123 105
-5.861495e-01 -3.406092e-01 3.007859e+00 143 137 113
-7.909392e-01 -6.432452e-01 2.787050e+00 147 80 32
-7.553340e-01 -7.274957e-01 2.813314e+00 52 21 14
-2.695989e-01 1.261635e-01 3.209219e+00 8 5 5
-3.389404e-01 5.226127e-02 3.121487e+00 176 112 55
-2.880776e-01 1.136364e-01 3.050272e+00 174 117 84
-2.757285e-01 9.465693e-02 3.181833e+00 141 108 98
-2.963511e-01 6.832763e-02 3.181541e+00 30 5 2
-4.284950e-01 7.476536e-02 2.967089e+00 34 15 11
-7.697779e-01 -1.799772e-01 2.846115e+00 22 17 14
-4.080581e-01 -2.642803e-01 3.330325e+00 178 163 111
-6.160477e-01 -3.815615e-01 2.967042e+00 48 41 38
-6.835267e-01 -7.194093e-01 2.833705e+00 68 24 3
-5.962060e-01 -3.391520e-01 3.021878e+00 120 115 92
-4.103983e-01 4.388750e-02 3.058914e+00 40 19 16
-2.911004e-01 2.282442e-01 3.026726e+00 47 5 0
-3.546936e-01 6.684216e-02 3.092650e+00 196 125 77
-1.013813e+00 2.367607e-01 2.769855e+00 38 23 3
-4.108007e-01 2.214951e-02 3.364662e+00 11 6 10
-6.280367e-01 -3.355634e-01 2.929099e+00 34 34 23
-6.124515e-01 -6.901371e-01 3.043659e+00 176 157 102
-6.688443e-01 -8.153649e-01 2.978510e+00 167 144 108
-7.971762e-01 -8.101429e-01 2.777797e+00 123 68 39
-6.328475e-01 -6.492073e-01 3.050467e+00 160 137 96
-3.118036e-01 1.767142e-01 3.319249e+00 166 146 111
-3.425063e-01 5.648660e-02 3.105282e+00 180 124 97
-4.373161e-01 -1.848236e-01 3.342562e+00 19 16 18
2.223614e-01 5.116775e-04 -1.121908e+00 0 255 0
2.340541e-01 7.551447e-03 -1.170010e+00 255 255 0
2.245818e-01 -8.739901e-03 -1.107507e+00 255 0 0
2.362619e-01 -2.149815e-03 -1.155675e+00 255 255 0
3.887295e-01 2.588466e-02 -1.089605e+00 0 255 0
4.028767e-01 3.324827e-02 -1.136994e+00 255 255 0
-1.592030e+00 -2.701628e-01 7.003790e+00 255 0 0
-1.583044e+00 -2.735988e-01 6.954725e+00 255 255 0
-1.967022e+00 -2.705549e-01 6.879680e+00 0 255 0
-1.953455e+00 -2.736810e-01 6.831657e+00 255 255 0
1.431377e+00 1.134732e-01 -6.853489e-01 255 0 0
1.458132e+00 1.206877e-01 -7.269678e-01 255 255 0
-2.301537e+00 -3.357127e-01 6.744522e+00 0 255 0
-2.283447e+00 -3.379692e-01 6.697964e+00 255 255 0
-2.549717e+00 -3.204403e-01 6.594236e+00 255 0 0
-2.528785e+00 -3.235423e-01 6.548934e+00 255 255 0
-2.801283e+00 -2.316514e-01 6.413304e+00 0 255 0
-2.777408e+00 -2.369847e-01 6.369698e+00 255 255 0
2.084202e+00 2.331380e-01 2.755848e-02 255 0 0
2.119372e+00 2.429449e-01 -6.601924e-03 255 255 0
-3.173037e+00 -3.277529e-02 6.057964e+00 0 255 0
-3.143906e+00 -3.948376e-02 6.017884e+00 255 255 0
-3.338601e+00 2.824747e-02 5.906627e+00 255 0 0
-3.307325e+00 2.095324e-02 5.868305e+00 255 255 0
-3.638073e+00 1.946209e-02 5.614677e+00 0 255 0
-3.603059e+00 1.238681e-02 5.579691e+00 255 255 0
