ply
format ascii 1.0
element vertex 123
property float x
property float y
property float z
property uchar diffuse_red
property uchar diffuse_green
property uchar diffuse_blue
end_header
-1.704432e-01 -5.248993e-01 2.843195e+00 202 172 110
-8.393118e-01 -6.357752e-01 2.718887e+00 46 18 5
-8.393118e-01 -6.357752e-01 2.718887e+00 46 18 5
-2.962113e-01 -1.064211e-01 3.777239e+00 182 151 87
-7.474738e-01 -5.050139e-01 3.144035e+00 25 23 20
-3.835668e-01 1.481870e-01 3.053951e+00 156 90 40
1.483986e-01 8.883566e-02 2.935544e+00 173 144 83
-3.665169e-01 -1.540580e-01 2.941327e+00 24 22 23
-7.612244e-01 -2.478460e-01 3.056232e+00 110 101 91
-7.612244e-01 -2.478460e-01 3.056232e+00 110 101 91
-2.264628e-01 -4.666467e-01 1.801334e+00 202 173 107
-1.018519e+00 -9.954827e-01 3.505797e+00 18 13 9
-1.024505e-01 2.391386e-01 3.193441e+00 177 143 82
-1.498543e-01 1.343886e-01 3.446519e+00 41 23 15
-4.827380e-01 -3.327497e-01 3.057855e+00 44 40 43
3.394362e-01 -2.087798e-01 3.107845e+00 25 14 10
-8.034656e-01 -6.298640e-01 2.818171e+00 138 71 29
-4.842226e-01 -6.535387e-01 2.328390e+00 13 3 1
-1.580190e-01 1.706411e-01 3.157698e+00 64 34 10
-2.489900e-01 1.341457e-01 3.384422e+00 165 130 75
-3.872468e-01 1.044071e-01 3.295223e+00 192 123 74
3.237894e-01 7.252938e-02 3.458750e+00 162 130 69
3.237894e-01 7.252938e-02 3.458750e+00 162 130 69
3.719031e-01 -4.984476e-02 3.299859e+00 174 140 74
-4.562794e-01 -4.321679e-01 2.614415e+00 58 49 50
-6.539799e-01 3.683114e-01 4.058568e+00 14 3 1
-5.032143e-01 2.568914e-01 3.116923e+00 11 7 7
-4.364257e-01 2.225495e-01 3.154343e+00 147 91 43
-1.352486e-01 2.127490e-01 3.778438e+00 169 139 84
-2.804198e-01 -1.424587e-01 3.015593e+00 190 163 102
-5.972613e-01 -7.532657e-01 2.896437e+00 200 174 116
-7.056881e-01 -7.292230e-01 2.413409e+00 12 4 1
3.629991e-01 -1.434369e-01 1.960353e+00 168 139 84
-6.697593e-01 -2.261012e-01 2.956373e+00 119 113 91
3.623988e-01 -3.020310e-01 3.273775e+00 19 11 2
-6.606406e-01 -6.581282e-01 2.799395e+00 197 133 91
-5.604831e-01 -8.011244e-01 2.592557e+00 202 175 122
-2.096098e-01 1.250672e-01 3.373521e+00 170 142 96
-2.346981e-01 2.834034e-03 2.991188e+00 181 157 113
3.231218e-01 -1.021153e-01 3.313686e+00 17 9 0
-5.326934e-01 -3.226067e-01 2.780149e+00 144 134 116
-5.941187e-01 -6.420965e-01 2.873254e+00 165 140 99
-6.576007e-01 -6.087020e-01 2.513510e+00 173 104 63
-7.158325e-01 -6.522508e-01 2.632945e+00 47 16 1
-5.560622e-01 -6.075335e-01 1.995979e+00 98 53 31
-6.539600e-01 -7.052394e-01 2.721032e+00 39 5 2
-6.584704e-01 -7.502738e-01 2.737205e+00 186 137 97
-6.584704e-01 -7.502738e-01 2.737205e+00 186 137 97
-6.980284e-01 -7.627345e-01 2.528059e+00 116 66 37
1.953144e-01 2.923247e-01 3.430106e+00 23 4 0
1.953144e-01 2.923247e-01 3.430106e+00 23 4 0
-1.979103e-01 2.541321e-01 3.342415e+00 177 149 125
-9.920406e-02 1.415795e-01 3.406627e+00 18 5 0
-1.071354e-02 1.066968e-01 3.275420e+00 180 161 131
-1.071354e-02 1.066968e-01 3.275420e+00 180 161 131
-1.242507e-01 6.877748e-02 3.277318e+00 170 138 94
4.093039e-01 -6.347298e-02 3.270845e+00 171 155 110
4.093039e-01 -6.347298e-02 3.270845e+00 171 155 110
3.419882e-01 -7.679082e-02 3.326263e+00 183 157 118
3.419882e-01 -7.679082e-02 3.326263e+00 183 157 118
3.310555e-01 -1.554823e-01 2.819219e+00 160 137 112
3.310555e-01 -1.554823e-01 2.819219e+00 160 137 112
-8.333399e-01 -2.064029e-01 3.057915e+00 150 142 129
-8.333399e-01 -2.064029e-01 3.057915e+00 150 142 129
-5.325680e-01 -2.163425e-01 2.704163e+00 130 117 111
3.882168e-01 -2.758475e-01 3.263226e+00 83 93 83
3.882168e-01 -2.758475e-01 3.263226e+00 83 93 83
-6.658985e-01 -2.701437e-01 2.946127e+00 33 29 18
-6.018383e-01 -5.303799e-01 2.692425e+00 29 16 6
-6.721511e-01 -6.181313e-01 2.867617e+00 121 94 67
-6.992780e-01 -6.268155e-01 2.860218e+00 47 5 0
-7.131525e-01 -8.832192e-01 2.838439e+00 25 12 1
-8.024233e-01 -9.089287e-01 2.632531e+00 184 158 120
-8.486769e-01 -9.670042e-01 2.882297e+00 198 172 124
-1.132376e+00 3.618687e-01 3.025950e+00 93 75 51
-1.317100e-01 3.309605e-01 3.366722e+00 27 23 22
-3.293393e-01 2.681128e-01 3.168882e+00 120 91 78
-5.364948e-01 2.729631e-01 3.490420e+00 126 75 41
-2.999182e-01 1.890531e-01 3.260928e+00 166 110 89
-2.999182e-01 1.890531e-01 3.260928e+00 166 110 89
-3.563102e-01 1.491068e-01 3.235521e+00 121 48 1
-3.563102e-01 1.491068e-01 3.235521e+00 121 48 1
-4.972760e-01 1.371314e-01 3.057572e+00 158 95 59
-9.290391e-01 1.539051e-01 3.140985e+00 12 11 11
3.660440e-01 1.197140e-01 3.676071e+00 29 6 0
3.660440e-01 1.197140e-01 3.676071e+00 29 6 0
-7.775219e-01 1.463865e-01 3.359626e+00 14 12 14
-4.330486e-01 7.436380e-02 3.304199e+00 49 8 1
9.787371e-02 -7.808009e-02 3.030884e+00 164 132 91
4.409320e-01 -1.615131e-01 -1.353542e-01 161 129 83
3.660538e-01 -1.695365e-01 3.089907e+00 144 140 118
3.733213e-01 -1.883453e-01 3.408050e+00 13 12 3
-3.682362e-01 -1.859345e-01 3.120405e+00 64 61 58
-7.397484e-01 -1.936981e-01 3.181395e+00 29 24 21
3.035038e-01 -2.278297e-01 2.938078e+00 156 121 83
-8.287895e-01 -2.300303e-01 2.854496e+00 104 97 94
-7.551656e-01 -2.593371e-01 3.007036e+00 32 21 15
-7.551656e-01 -2.593371e-01 3.007036e+00 32 21 15
-5.432161e-01 -2.660860e-01 2.968193e+00 35 24 19
-6.630087e-01 -2.735124e-01 3.102186e+00 51 42 27
-6.630087e-01 -2.735124e-01 3.102186e+00 51 42 27
-6.018656e-01 -2.844013e-01 3.093026e+00 148 139 122
-5.508097e-01 -2.913891e-01 3.032019e+00 160 147 141
-5.508097e-01 -2.913891e-01 3.032019e+00 160 147 141
-6.572582e-01 -2.931145e-01 2.977550e+00 123 121 108
3.853822e-01 -3.229062e-01 3.215556e+00 95 102 92
-8.506168e-01 -3.347899e-01 3.282376e+00 31 25 19
-5.190193e-01 -4.296619e-01 3.138464e+00 190 172 133
-7.524754e-01 -4.781305e-01 2.901386e+00 71 56 45
-5.728450e-01 -5.000864e-01 3.141709e+00 196 174 124
-6.930546e-01 -5.423488e-01 2.830482e+00 50 6 1
4.032510e-01 -5.710778e-01 3.121930e+00 35 10 1
-7.463831e-01 -5.750765e-01 2.828024e+00 43 11 0
-7.463831e-01 -5.750765e-01 2.828024e+00 43 11 0
4.263260e-01 -6.080156e-01 2.808202e+00 52 8 1
-7.806643e-01 -6.439520e-01 2.950587e+00 84 21 0
4.226192e-01 -6.535181e-01 3.020906e+00 178 139 102
-5.463238e-01 -6.410767e-01 2.644733e+00 35 29 8
-6.218441e-01 -8.460000e-01 2.645360e+00 178 155 115
5.321329e-01 -1.782749e-01 -1.085908e+00 0 255 0
5.475783e-01 -1.735525e-01 -1.133228e+00 255 255 0
5.406855e-01 -2.148889e-01 -1.064783e+00 255 0 0
5.562239e-01 -2.109530e-01 -1.112144e+00 255 255 0
