ply
format ascii 1.0
element vertex 363
property float x
property float y
property float z
property uchar diffuse_red
property uchar diffuse_green
property uchar diffuse_blue
end_header
-3.082124e-01 -5.358646e-01 3.159532e+00 202 172 110
-8.628634e-01 -5.826451e-01 2.904084e+00 46 18 5
-8.628634e-01 -5.826451e-01 2.904084e+00 46 18 5
-3.376655e-01 -1.660220e-01 3.462417e+00 182 151 87
-6.966331e-01 -4.781077e-01 2.973856e+00 25 23 20
-4.166709e-01 9.752387e-02 2.992206e+00 156 90 40
-7.464856e-02 8.749184e-02 3.686890e+00 173 144 83
-5.208546e-01 -1.873604e-01 3.268851e+00 24 22 23
-7.694277e-01 -2.602056e-01 3.046239e+00 110 101 91
-7.128178e-01 -2.582559e-01 2.913668e+00 110 101 91
-6.240370e-01 -5.555681e-01 3.116502e+00 202 173 107
-7.691762e-01 -8.121763e-01 2.835661e+00 18 13 9
-2.370407e-01 1.943292e-01 3.377826e+00 177 143 82
-3.348129e-01 8.992740e-02 3.785973e+00 41 23 15
-5.617434e-01 -3.363738e-01 3.196429e+00 44 40 43
3.205496e-01 -1.602603e-01 2.200418e+00 25 14 10
-7.692236e-01 -5.936721e-01 2.770032e+00 138 71 29
-6.652924e-01 -6.936768e-01 2.928853e+00 13 3 1
-3.301947e-01 1.393009e-01 3.529108e+00 64 34 10
-3.001982e-01 7.736602e-02 3.211959e+00 165 130 75
-3.908904e-01 4.756699e-02 3.052309e+00 192 123 74
1.511293e-01 3.680513e-02 3.611918e+00 162 130 69
1.511293e-01 3.680513e-02 3.611918e+00 162 130 69
2.746696e-01 -6.381814e-02 2.851547e+00 174 140 74
-6.327201e-01 -4.493406e-01 3.161874e+00 58 49 50
-4.303254e-01 2.004977e-01 2.929632e+00 14 3 1
-4.671883e-01 1.838655e-01 2.855328e+00 11 7 7
-4.174742e-01 1.624773e-01 2.906149e+00 147 91 43
-2.224681e-01 1.278377e-01 3.534811e+00 169 139 84
-4.157670e-01 -1.646099e-01 3.307539e+00 190 163 102
-6.231552e-01 -7.174509e-01 2.966961e+00 200 174 116
-8.039880e-01 -7.317484e-01 2.736587e+00 12 4 1
5.201893e-01 -5.842189e-02 3.978768e-01 168 139 84
-6.678386e-01 -2.425886e-01 2.915873e+00 119 113 91
2.596759e-01 -2.696774e-01 2.954486e+00 19 11 2
-6.936814e-01 -6.292819e-01 2.895952e+00 197 133 91
-6.520254e-01 -7.959006e-01 2.898608e+00 202 175 122
-4.196007e-01 -3.970646e-02 3.366353e+00 181 157 113
9.811760e-02 -1.323692e-01 4.032147e+00 17 9 0
-6.363431e-01 -3.314914e-01 3.054538e+00 144 134 116
-6.319944e-01 -6.142246e-01 2.998244e+00 165 140 99
-7.386894e-01 -6.094845e-01 2.783847e+00 173 104 63
-7.262581e-01 -6.191443e-01 2.728430e+00 47 16 1
-8.144685e-01 -6.728585e-01 2.772792e+00 98 53 31
-6.850406e-01 -6.864823e-01 2.829106e+00 39 5 2
-6.880223e-01 -7.271720e-01 2.830911e+00 186 137 97
-6.885186e-01 -7.266852e-01 2.831878e+00 186 137 97
-7.582139e-01 -7.500479e-01 2.743990e+00 116 66 37
-3.825217e-02 2.666808e-01 4.042097e+00 23 4 0
-3.825217e-02 2.666808e-01 4.042097e+00 23 4 0
-4.496051e-01 2.265001e-01 3.986354e+00 177 149 125
-3.710972e-01 1.123666e-01 4.161127e+00 18 5 0
-1.261778e-01 6.521125e-02 3.318274e+00 180 161 131
-1.925504e-01 7.552260e-02 3.650993e+00 180 161 131
-2.450496e-01 2.404000e-02 3.394150e+00 170 138 94
3.142785e-01 -7.187180e-02 2.745004e+00 171 155 110
3.142785e-01 -7.187180e-02 2.745004e+00 171 155 110
2.294003e-01 -8.917541e-02 3.053668e+00 183 157 118
2.294003e-01 -8.917541e-02 3.053668e+00 183 157 118
7.478096e-02 -1.825047e-01 4.069718e+00 160 137 112
3.974222e-01 -9.853930e-02 1.436737e+00 160 137 112
-7.467493e-01 -2.214534e-01 2.821094e+00 150 142 129
-7.467493e-01 -2.214534e-01 2.821094e+00 150 142 129
-6.288048e-01 -2.352160e-01 2.974213e+00 130 117 111
2.938954e-01 -2.396940e-01 2.819964e+00 83 93 83
2.938954e-01 -2.396940e-01 2.819964e+00 83 93 83
-6.720187e-01 -2.785647e-01 2.943102e+00 33 29 18
-6.766999e-01 -5.264686e-01 2.922348e+00 29 16 6
-6.844923e-01 -5.904746e-01 2.905266e+00 121 94 67
-6.967877e-01 -5.948583e-01 2.840488e+00 47 5 0
-7.152960e-01 -8.302373e-01 2.866925e+00 25 12 1
-8.294686e-01 -8.762547e-01 2.806675e+00 184 158 120
-8.369090e-01 -9.100863e-01 2.893066e+00 198 172 124
-1.447685e+00 3.368752e-01 3.689297e+00 93 75 51
-3.657448e-01 3.007889e-01 3.934843e+00 27 23 22
-3.585845e-01 2.053321e-01 3.011496e+00 120 91 78
-4.348188e-01 1.681095e-01 2.899601e+00 126 75 41
-3.262913e-01 1.236625e-01 3.061830e+00 166 110 89
-3.262913e-01 1.236625e-01 3.061830e+00 166 110 89
-3.480881e-01 9.983503e-02 2.965476e+00 121 48 1
-3.481254e-01 9.968274e-02 2.965284e+00 121 48 1
-4.838156e-01 8.224105e-02 2.891746e+00 158 95 59
-7.935698e-01 7.699350e-02 2.772179e+00 12 11 11
9.210459e-02 9.207197e-02 4.594931e+00 29 6 0
9.210459e-02 9.207197e-02 4.594931e+00 29 6 0
-1.512982e+00 1.352979e-01 5.194909e+00 14 12 14
-4.434064e-01 1.849186e-02 3.102492e+00 49 8 1
1.480322e-01 -7.624965e-02 2.216089e+00 164 132 91
6.156341e-01 -3.504651e-02 -4.095321e-01 161 129 83
3.573226e-01 -1.270411e-01 2.018842e+00 144 140 118
2.122434e-01 -1.991456e-01 3.505579e+00 13 12 3
-4.645409e-01 -2.046638e-01 3.260266e+00 64 61 58
-6.640202e-01 -2.067057e-01 2.899455e+00 29 24 21
3.538280e-01 -1.492813e-01 1.700825e+00 156 121 83
-7.911437e-01 -2.408900e-01 2.792318e+00 104 97 94
-7.111486e-01 -2.690394e-01 2.872945e+00 32 21 15
-7.111105e-01 -2.708541e-01 2.872179e+00 32 21 15
-5.961289e-01 -2.750293e-01 3.059365e+00 35 24 19
-6.437678e-01 -2.797087e-01 2.979595e+00 51 42 27
-6.418231e-01 -2.787083e-01 2.978764e+00 51 42 27
-6.150104e-01 -2.900150e-01 3.043890e+00 148 139 122
-6.027728e-01 -2.973797e-01 3.088605e+00 160 147 141
-6.025477e-01 -2.973509e-01 3.088565e+00 160 147 141
-6.654158e-01 -2.985980e-01 2.964546e+00 123 121 108
2.927590e-01 -2.768636e-01 2.805038e+00 95 102 92
-7.360680e-01 -3.236609e-01 2.926379e+00 31 25 19
-5.470392e-01 -4.182069e-01 3.106371e+00 190 172 133
-7.432458e-01 -4.625319e-01 2.917923e+00 71 56 45
-6.110253e-01 -4.830774e-01 3.173431e+00 196 174 124
-7.111648e-01 -5.235814e-01 2.894307e+00 50 6 1
3.508454e-01 -4.246694e-01 2.385010e+00 35 10 1
-7.358638e-01 -5.473830e-01 2.820163e+00 43 11 0
-7.344955e-01 -5.486463e-01 2.817125e+00 43 11 0
4.729471e-01 -3.004447e-01 1.219330e+00 52 8 1
-7.404652e-01 -5.992870e-01 2.827170e+00 84 21 0
3.904491e-01 -4.480143e-01 2.106859e+00 178 139 102
-6.606537e-01 -6.491828e-01 2.993407e+00 35 29 8
-7.114719e-01 -8.373659e-01 2.929866e+00 178 155 115
-7.996471e-01 -6.064310e-01 2.934473e+00 166 97 58
-3.989203e-01 2.096633e-01 2.882086e+00 17 6 3
-6.583983e-01 -7.072998e-01 2.967166e+00 29 19 0
-4.670208e-01 3.314167e-02 2.956974e+00 49 39 37
-4.740576e-01 -1.818687e-02 3.775161e+00 160 133 83
-5.946091e-01 -3.387704e-01 3.037942e+00 61 51 49
-6.411087e-01 -5.547937e-01 2.849845e+00 18 12 4
-5.296207e-01 -4.334082e-01 3.086903e+00 194 173 132
4.272135e+00 1.032944e+00 -4.581542e+00 178 141 99
-3.695734e-01 9.436443e-02 3.063409e+00 101 40 4
-7.110768e-01 -2.480362e-01 2.862920e+00 128 124 112
-7.409493e-01 -7.663593e-01 2.970280e+00 19 18 18
-4.721638e-01 -7.307563e-02 3.170267e+00 12 12 12
-1.053298e+00 -3.746962e-01 2.801803e+00 39 25 14
-3.633154e-01 7.754836e-02 2.990216e+00 192 122 67
-6.526301e-01 -2.303474e-01 2.909647e+00 129 123 105
-6.378235e-01 -3.259994e-01 3.035084e+00 143 137 113
-7.852510e-01 -6.006076e-01 2.787724e+00 147 80 32
-7.541083e-01 -6.752733e-01 2.814916e+00 52 21 14
-3.402840e-01 9.542617e-02 3.187680e+00 8 5 5
-3.939757e-01 3.023775e-02 3.098346e+00 176 112 55
-3.288475e-01 1.005835e-01 3.007893e+00 174 117 84
-3.412396e-01 6.820333e-02 3.157043e+00 141 108 98
-3.619571e-01 4.378170e-02 3.160692e+00 30 5 2
-4.642156e-01 5.192365e-02 2.942803e+00 34 15 11
-7.598714e-01 -1.842345e-01 2.819688e+00 22 17 14
-5.022739e-01 -2.578684e-01 3.356941e+00 178 163 111
-6.481603e-01 -3.621995e-01 2.979490e+00 48 41 38
-6.947456e-01 -6.688960e-01 2.831081e+00 68 24 3
-6.345971e-01 -3.248651e-01 3.036368e+00 120 115 92
-4.573772e-01 2.474330e-02 3.043046e+00 40 19 16
-3.429332e-01 2.000986e-01 2.992406e+00 47 5 0
-4.150392e-01 4.255019e-02 3.080075e+00 196 125 77
-1.056082e+00 1.794619e-01 2.886796e+00 38 23 3
-4.959034e-01 -6.848117e-03 3.381334e+00 11 6 10
-6.731532e-01 -3.222303e-01 2.958789e+00 34 34 23
-6.324656e-01 -6.390096e-01 3.041014e+00 176 157 102
-6.806490e-01 -7.517686e-01 2.980056e+00 167 144 108
-7.593801e-01 -7.637088e-01 2.733890e+00 123 68 39
-6.567866e-01 -6.024335e-01 3.057532e+00 160 137 96
-3.915905e-01 1.340052e-01 3.313191e+00 166 146 111
-3.953335e-01 3.354189e-02 3.081657e+00 180 124 97
-5.608141e-01 -1.785103e-01 3.402861e+00 19 16 18
-9.790899e-01 1.871725e-01 2.745745e+00 30 22 4
-6.360555e-01 -3.333522e-01 3.056835e+00 144 128 100
-6.975580e-01 -2.893221e-01 2.912319e+00 131 128 111
-6.066731e-01 -2.597772e-01 3.016797e+00 56 51 49
-3.129885e-01 5.390795e-02 3.504752e+00 161 139 99
9.185584e-01 9.251684e-02 2.603966e+00 160 132 93
-6.730501e-01 -3.230110e-01 2.958697e+00 34 34 23
-7.700638e-01 -2.800274e-01 2.824219e+00 39 35 31
-3.970950e-01 5.923766e-02 3.161291e+00 149 99 48
-3.192291e-01 1.210484e-01 3.469448e+00 158 136 83
-7.740144e-01 2.709211e-01 2.737397e+00 108 97 75
-4.732776e-01 2.865527e-03 3.358247e+00 12 9 10
-1.750445e+00 1.194658e-01 3.920356e+00 19 9 1
-3.962856e-01 1.090588e-01 3.292928e+00 165 145 102
9.469263e-01 1.081519e-01 2.327824e+00 165 141 101
-6.246163e-01 -5.083942e-01 3.124283e+00 190 167 132
-5.486640e-01 -6.804627e-02 3.451850e+00 41 29 23
-3.122167e-01 2.241416e-01 3.025161e+00 23 8 5
-3.012274e-01 1.518497e-01 3.019407e+00 179 115 85
-6.707991e-01 -2.821348e-01 2.941577e+00 37 29 18
-6.848557e-01 -3.035888e-01 2.935210e+00 137 126 112
-7.429675e-01 -5.029966e-01 3.196152e+00 35 23 16
-4.930839e-01 6.233126e-02 2.893596e+00 27 11 3
-6.089978e-01 -2.780421e-01 3.102008e+00 34 22 23
-8.178188e-01 -6.493785e-01 2.706065e+00 6 8 8
-7.700097e-01 -5.291180e-01 3.171952e+00 175 149 97
-8.984810e-01 -5.323692e-01 2.700341e+00 20 10 0
-4.908273e-01 2.304793e-02 3.372224e+00 10 7 3
-7.474170e-01 -6.346805e-01 2.768449e+00 55 22 9
-3.870878e-01 1.142505e-01 3.293665e+00 161 146 107
-9.073702e-01 1.933068e-01 2.688038e+00 121 98 61
-7.547161e-01 -4.557973e-01 2.934211e+00 81 49 27
-7.094193e-01 -6.752850e-01 3.054619e+00 66 47 20
-7.183569e-01 -7.062952e-01 3.033621e+00 45 30 9
-8.729064e-01 -8.279672e-01 2.768368e+00 193 167 118
-4.129906e-01 1.531292e-01 3.315850e+00 33 25 11
-5.983349e-01 -1.734214e-01 3.415958e+00 12 12 14
-7.664533e-01 -4.877944e-01 3.257740e+00 185 161 124
-7.617326e-01 -5.033188e-01 3.169081e+00 45 29 17
-6.820392e-01 -5.703782e-01 2.865073e+00 40 2 1
-6.803913e-01 -5.699405e-01 2.863747e+00 40 2 1
-7.521507e-01 -6.416274e-01 3.103258e+00 59 39 10
-7.092732e-01 -6.550227e-01 2.775758e+00 59 17 0
-8.979009e-01 -6.137919e-01 2.694426e+00 41 26 2
-8.330600e-01 -3.304219e-02 2.728935e+00 12 12 14
-6.782959e-01 3.275322e-01 2.722506e+00 118 89 41
-6.782959e-01 3.275322e-01 2.722506e+00 118 89 41
-4.310985e-01 8.799696e-02 3.168751e+00 181 118 71
-7.682572e-01 -8.604056e-01 2.899396e+00 187 170 113
-3.279059e-01 1.291598e-01 2.952015e+00 192 126 80
-3.909834e-01 7.011467e-02 3.086156e+00 90 32 3
-5.273478e-01 4.499008e-02 3.080101e+00 204 131 89
-6.515275e-01 -2.563516e-01 3.430307e+00 52 37 17
-6.275251e-01 -2.609582e-01 2.997044e+00 45 38 33
-7.891790e-01 -6.475839e-01 3.288334e+00 198 173 106
-3.315201e-01 1.115707e-01 3.180436e+00 15 13 12
-8.807341e-01 2.457748e-01 2.824272e+00 119 97 54
-7.615468e-01 -5.283509e-01 2.785953e+00 75 50 19
-7.270970e-01 6.096682e-02 2.737884e+00 55 57 56
-6.956578e-01 -6.556749e-01 2.776041e+00 66 23 3
-4.113363e-01 1.705536e-01 3.350931e+00 147 130 92
-4.044798e-01 6.847946e-02 3.196402e+00 132 93 61
-5.421182e-01 4.879775e-04 3.448843e+00 12 6 0
-4.854982e-01 5.975104e-02 2.928237e+00 24 6 2
-6.392536e-01 -2.814778e-01 3.004203e+00 85 86 75
-8.944029e-01 -4.876453e-01 2.700205e+00 30 17 1
-6.738922e-01 -6.005836e-01 2.853563e+00 146 104 61
-6.958083e-01 -5.970048e-01 2.805519e+00 37 0 0
-9.989981e-01 -4.023609e-01 2.657440e+00 180 152 89
-9.366710e-01 -4.093271e-02 2.636968e+00 40 33 29
-5.321627e-01 5.168861e-02 3.421395e+00 151 134 94
-9.471155e-01 5.739872e-02 2.658248e+00 36 26 14
-3.145920e-01 1.432532e-01 3.081240e+00 129 74 46
-7.121295e-01 -2.586502e-02 3.522663e+00 33 24 1
-7.101523e-01 -5.281825e-02 3.353714e+00 9 8 1
-6.992968e-01 -1.758987e-01 2.805104e+00 35 29 29
-7.108042e-01 -3.283927e-01 2.898629e+00 33 31 25
-7.416181e-01 -4.680991e-01 3.253941e+00 47 35 20
-6.734322e-01 -6.034915e-01 2.851120e+00 162 106 73
-6.758835e-01 -6.696655e-01 2.794100e+00 182 122 74
-8.554064e-01 -4.471711e-01 2.772452e+00 6 6 7
-6.579667e-01 -6.481059e-01 2.795795e+00 189 125 71
-4.990922e-01 1.854622e-01 3.360797e+00 28 23 19
-4.012444e-01 1.416504e-01 3.264195e+00 5 7 5
-7.602021e-01 -4.684121e-01 2.977149e+00 90 54 30
-2.727496e-01 2.008061e-01 3.007075e+00 131 90 74
-2.965976e-01 1.714921e-01 3.057510e+00 121 81 56
-3.270490e-01 1.703403e-01 3.089669e+00 58 16 0
-3.270490e-01 1.703403e-01 3.089669e+00 58 16 0
-8.262511e-01 2.120107e-01 2.731424e+00 97 82 66
-6.046478e-01 -2.057831e-02 3.473577e+00 20 9 1
-7.239452e-01 -6.001705e-02 3.526897e+00 54 45 18
-6.477983e-01 -2.955388e-01 3.016595e+00 59 50 42
-7.809054e-01 -3.540041e-01 3.503561e+00 185 160 94
-8.924127e-01 1.022504e-01 2.667806e+00 32 29 25
-6.423774e-01 -2.461484e-01 2.859597e+00 111 99 81
-7.144067e-01 -7.547493e-01 2.729479e+00 112 61 36
-3.813553e-01 9.404460e-02 3.096930e+00 157 96 44
-6.656599e-01 1.629664e-02 3.494740e+00 164 147 110
-7.572352e-01 -6.896332e-01 2.740032e+00 138 90 54
-7.173247e-01 -6.961586e-01 2.725239e+00 138 90 54
-4.599126e-01 4.795330e-02 3.139909e+00 160 114 76
-8.927389e-01 1.438069e-01 2.672066e+00 34 22 3
-6.923169e-01 -1.892489e-01 2.860837e+00 37 33 31
-8.099670e-01 -5.767517e-01 3.143148e+00 138 121 78
-8.755516e-01 -7.192458e-01 2.698297e+00 175 156 104
-8.368680e-01 -6.775709e-01 3.117025e+00 171 146 89
-9.020655e-01 1.708860e-01 2.673165e+00 132 115 73
-3.472897e-01 2.049720e-01 3.070056e+00 18 6 1
-3.846572e-01 9.551345e-02 3.097715e+00 158 99 52
-3.883494e-01 1.938435e-01 3.125823e+00 21 10 3
-3.196310e-01 1.461486e-01 3.082311e+00 136 82 45
-3.885741e-01 5.659661e-02 3.084232e+00 174 116 102
-7.448330e-01 -6.941299e-02 3.523221e+00 51 40 27
-8.207601e-01 -5.458433e-01 3.158072e+00 145 122 84
-9.231590e-01 -2.425797e-01 2.719629e+00 35 33 32
-9.514936e-01 -3.980662e-01 2.662403e+00 182 152 88
-6.288744e-01 -7.403529e-01 2.888601e+00 8 8 7
-6.790019e-01 9.335069e-02 3.435734e+00 126 100 52
-7.440522e-01 -5.106004e-01 2.936997e+00 29 16 5
-7.693056e-01 1.680620e-01 2.733764e+00 20 21 17
-8.385274e-01 -5.530066e-01 3.133369e+00 25 18 1
-8.247911e-01 -6.364198e-01 2.658497e+00 160 133 82
-7.683405e-01 -8.956565e-01 2.822548e+00 204 176 122
-8.102200e-01 1.981639e-01 2.718047e+00 132 116 88
-7.222741e-01 -1.040121e-01 3.515935e+00 41 29 9
-9.204140e-01 1.306276e-01 2.650876e+00 158 132 91
-7.679942e-01 -4.690012e-01 2.887326e+00 22 4 0
-9.304500e-01 -4.264203e-01 2.723367e+00 40 20 1
-8.825452e-01 -5.391125e-01 2.686527e+00 138 117 89
-8.233904e-01 -8.562263e-01 2.901297e+00 186 164 120
-3.577594e-01 1.613320e-01 3.137536e+00 20 6 1
-3.738947e-01 9.151074e-02 3.062302e+00 155 87 54
-8.307219e-01 4.142806e-03 2.756203e+00 3 3 5
-6.834970e-01 -3.403234e-01 3.034626e+00 141 132 109
-9.128850e-01 -3.141764e-01 2.681146e+00 44 27 15
-8.175064e-01 -6.614587e-01 2.678805e+00 29 10 1
-7.589446e-01 2.916070e-01 2.772953e+00 136 108 59
-7.064177e-01 2.508572e-01 2.786092e+00 22 12 4
-8.288848e-01 -4.538618e-01 2.982260e+00 93 48 22
-8.826281e-01 -4.541576e-01 2.682031e+00 176 144 93
-8.670525e-01 -4.602125e-01 2.682083e+00 170 139 92
-3.610463e-01 9.543950e-02 3.096847e+00 167 106 60
-8.125425e-01 2.120611e-01 2.693077e+00 17 8 1
-6.677432e-01 -1.987223e-01 2.804605e+00 108 100 93
-9.095945e-01 -3.106218e-01 3.014379e+00 32 26 28
-9.927025e-01 -3.314835e-01 2.694891e+00 182 155 117
-7.409161e-01 -5.147690e-01 2.855462e+00 51 2 0
-8.715160e-01 -5.870018e-01 3.122699e+00 51 34 12
-8.605580e-01 -4.890235e-01 2.687206e+00 54 28 6
-7.753410e-01 -6.205632e-01 2.842491e+00 178 112 68
-7.317293e-01 -6.863599e-01 2.728229e+00 131 101 79
6.431590e-01 -3.130892e-02 -5.733505e-01 0 255 0
6.617559e-01 -2.444842e-02 -6.192535e-01 255 255 0
6.424246e-01 -3.655543e-02 -5.605464e-01 255 0 0
6.610058e-01 -3.010541e-02 -6.065153e-01 255 255 0
7.489644e-01 -4.834470e-03 -5.318638e-01 0 255 0
7.694114e-01 2.405963e-03 -5.769137e-01 255 255 0
-1.960573e+00 -3.081767e-01 6.421984e+00 255 0 0
-1.945437e+00 -3.110579e-01 6.374418e+00 255 255 0
-2.097875e+00 -2.447599e-01 6.327459e+00 0 255 0
-2.080694e+00 -2.482099e-01 6.280631e+00 255 255 0
1.343402e+00 7.399325e-02 -2.283128e-01 255 0 0
1.372017e+00 8.115013e-02 -2.686856e-01 255 255 0
-2.307073e+00 -3.571193e-01 6.252151e+00 0 255 0
-2.286688e+00 -3.589389e-01 6.206531e+00 255 255 0
-2.404115e+00 -3.641038e-01 6.187676e+00 255 0 0
-2.382644e+00 -3.664839e-01 6.142583e+00 255 255 0
-2.534647e+00 -3.456764e-01 6.085558e+00 0 255 0
-2.511510e+00 -3.494565e-01 6.041395e+00 255 255 0
1.634542e+00 -1.236734e-01 3.311532e-02 255 0 0
1.667146e+00 -1.181709e-01 -4.390755e-03 255 255 0
-2.740290e+00 -1.800377e-01 5.905182e+00 0 255 0
-2.713908e+00 -1.849797e-01 5.862997e+00 255 255 0
-2.847648e+00 -1.381332e-01 5.823061e+00 255 0 0
-2.819726e+00 -1.434727e-01 5.781929e+00 255 255 0
-3.017127e+00 -5.478858e-02 5.706507e+00 0 255 0
-2.987126e+00 -6.109402e-02 5.667008e+00 255 255 0
-3.270266e+00 -8.275585e-02 5.516734e+00 255 0 0
-3.236516e+00 -8.874897e-02 5.480333e+00 255 255 0
2.415710e+00 -2.145889e-01 7.546424e-01 0 255 0
2.457475e+00 -2.110192e-01 7.273841e-01 255 255 0
-3.666768e+00 -3.296110e-02 5.116780e+00 255 0 0
-3.627976e+00 -3.892285e-02 5.085802e+00 255 255 0
-3.777551e+00 2.781413e-02 4.969943e+00 0 255 0
-3.737078e+00 2.107805e-02 4.941367e+00 255 255 0
-3.880676e+00 -1.313639e-02 4.794480e+00 255 0 0
-3.838707e+00 -1.923640e-02 4.767996e+00 255 255 0
-3.947499e+00 1.925742e-01 4.633355e+00 0 255 0
-3.904955e+00 1.833164e-01 4.608774e+00 255 255 0
-4.032584e+00 2.482627e-01 4.477804e+00 255 0 0
-3.988590e+00 2.386524e-01 4.456075e+00 255 255 0
-4.131132e+00 2.657120e-01 4.272468e+00 0 255 0
-4.085861e+00 2.560103e-01 4.253589e+00 255 255 0
-4.238014e+00 3.533958e-01 4.012811e+00 255 0 0
-4.191900e+00 3.428073e-01 3.996642e+00 255 255 0
-4.311652e+00 4.209332e-01 3.580464e+00 0 255 0
-4.264090e+00 4.097628e-01 3.569832e+00 255 255 0
-4.196271e+00 4.884343e-01 3.266453e+00 255 0 0
-4.148564e+00 4.749460e-01 3.259965e+00 255 255 0
-4.105224e+00 5.606979e-01 3.149647e+00 0 255 0
-4.057739e+00 5.459306e-01 3.144440e+00 255 255 0
