ply
format ascii 1.0
element vertex 487
property float x
property float y
property float z
property uchar diffuse_red
property uchar diffuse_green
property uchar diffuse_blue
end_header
-4.013749e-01 -4.918939e-01 3.116684e+00 202 172 110
-4.493896e-01 -1.902889e-01 3.376922e+00 182 151 87
-7.177593e-01 -4.449391e-01 2.953450e+00 25 23 20
-4.822295e-01 3.442122e-02 2.976242e+00 156 90 40
-2.433668e-01 2.073993e-02 3.569850e+00 173 144 83
-6.028290e-01 -2.075917e-01 3.227543e+00 24 22 23
-7.982404e-01 -2.674096e-01 3.041070e+00 110 101 91
-7.347284e-01 -2.616196e-01 2.917253e+00 110 101 91
-6.727504e-01 -5.083644e-01 3.089421e+00 202 173 107
-7.802348e-01 -7.101002e-01 2.858232e+00 18 13 9
-3.590880e-01 1.118293e-01 3.307753e+00 177 143 82
-4.614498e-01 2.079391e-02 3.625817e+00 41 23 15
-6.228968e-01 -3.291633e-01 3.151673e+00 44 40 43
3.386003e-01 -1.199416e-01 1.534983e+00 25 14 10
-7.676879e-01 -5.362801e-01 2.787459e+00 138 71 29
-6.831972e-01 -6.211083e-01 2.909283e+00 13 3 1
-4.444926e-01 6.435428e-02 3.423615e+00 64 34 10
-3.989467e-01 1.623784e-02 3.161641e+00 165 130 75
-4.632593e-01 -7.050294e-03 3.022938e+00 192 123 74
-3.417280e-02 -2.023785e-02 3.430677e+00 162 130 69
-3.417280e-02 -2.023785e-02 3.430677e+00 162 130 69
1.999963e-01 -8.363384e-02 2.351510e+00 174 140 74
-6.834676e-01 -4.215634e-01 3.127203e+00 58 49 50
-4.917266e-01 1.193780e-01 2.929337e+00 14 3 1
-5.232544e-01 1.021401e-01 2.870129e+00 11 7 7
-4.810154e-01 8.811355e-02 2.910991e+00 147 91 43
-3.542519e-01 5.502692e-02 3.429647e+00 169 139 84
-5.017952e-01 -1.867979e-01 3.237323e+00 190 163 102
-6.503760e-01 -6.409368e-01 2.942550e+00 200 174 116
-7.907006e-01 -6.514724e-01 2.750766e+00 12 4 1
5.357650e-01 -5.098599e-02 4.974707e-01 168 139 84
-6.927091e-01 -2.480087e-01 2.915807e+00 119 113 91
1.969280e-01 -2.165771e-01 2.356056e+00 19 11 2
-7.128824e-01 -5.670113e-01 2.893817e+00 197 133 91
-6.697913e-01 -7.064011e-01 2.880908e+00 202 175 122
-1.189813e-01 -1.636842e-01 3.850768e+00 17 9 0
-6.773672e-01 -3.231486e-01 3.034335e+00 144 134 116
-6.612339e-01 -5.561652e-01 2.970918e+00 165 140 99
-7.415193e-01 -5.499554e-01 2.796856e+00 173 104 63
-7.281666e-01 -5.609027e-01 2.750037e+00 47 16 1
-7.992259e-01 -6.034517e-01 2.776040e+00 98 53 31
-7.022692e-01 -6.174708e-01 2.832232e+00 39 5 2
-7.016236e-01 -6.518243e-01 2.829832e+00 186 137 97
-7.014120e-01 -6.514006e-01 2.830090e+00 186 137 97
-7.481526e-01 -6.622711e-01 2.756891e+00 116 66 37
-2.316753e-01 1.646602e-01 3.846845e+00 23 4 0
-2.316753e-01 1.646602e-01 3.846845e+00 23 4 0
-7.338450e-01 1.544889e-01 4.296628e+00 177 149 125
-6.906260e-01 4.663635e-02 4.527304e+00 18 5 0
-2.468627e-01 4.980158e-03 3.205517e+00 180 161 131
-3.376329e-01 1.077007e-02 3.530007e+00 180 161 131
-3.642495e-01 -3.024871e-02 3.314843e+00 170 138 94
2.276509e-01 -8.860195e-02 2.305636e+00 171 155 110
2.276509e-01 -8.860195e-02 2.305636e+00 171 155 110
1.303384e-01 -1.064958e-01 2.636746e+00 183 157 118
1.303384e-01 -1.064958e-01 2.636746e+00 183 157 118
-1.413357e-01 -2.057239e-01 3.884467e+00 160 137 112
4.311514e-01 -7.770253e-02 1.028851e+00 160 137 112
-7.534898e-01 -2.301352e-01 2.835353e+00 150 142 129
-7.534971e-01 -2.300304e-01 2.835440e+00 150 142 129
-6.635928e-01 -2.411955e-01 2.966043e+00 130 117 111
2.480017e-01 -1.868525e-01 2.146676e+00 83 93 83
2.480017e-01 -1.868525e-01 2.146676e+00 83 93 83
-6.988528e-01 -2.779139e-01 2.939495e+00 33 29 18
-6.973599e-01 -4.845945e-01 2.910612e+00 29 16 6
-6.995293e-01 -5.362103e-01 2.890545e+00 121 94 67
-7.069186e-01 -5.387594e-01 2.840148e+00 47 5 0
-7.185941e-01 -7.336954e-01 2.849873e+00 25 12 1
-8.100084e-01 -7.713823e-01 2.799176e+00 184 158 120
-8.272106e-01 -8.043899e-01 2.872839e+00 198 172 124
-1.452277e+00 2.325159e-01 3.613650e+00 93 75 51
-6.137704e-01 2.173972e-01 4.130487e+00 27 23 22
-4.369517e-01 1.226530e-01 3.000186e+00 120 91 78
-4.934140e-01 9.349145e-02 2.903479e+00 126 75 41
-4.118473e-01 5.614099e-02 3.038080e+00 166 110 89
-4.118473e-01 5.614099e-02 3.038080e+00 166 110 89
-4.215259e-01 3.769653e-02 2.956280e+00 121 48 1
-4.240291e-01 3.670024e-02 2.958709e+00 121 48 1
-5.377695e-01 2.104285e-02 2.899673e+00 158 95 59
-7.847011e-01 1.758120e-02 2.781251e+00 12 11 11
-2.458352e-01 2.167455e-02 4.780915e+00 29 6 0
-2.458352e-01 2.167455e-02 4.780915e+00 29 6 0
-2.121852e+00 6.241133e-02 6.010650e+00 14 12 14
-5.151005e-01 -3.392140e-02 3.074444e+00 49 8 1
1.950615e-01 -8.207410e-02 1.740793e+00 164 132 91
6.021897e-01 -3.706814e-02 1.603592e-01 161 129 83
3.866180e-01 -9.570049e-02 1.326619e+00 144 140 118
4.097429e-02 -2.037857e-01 3.245072e+00 13 12 3
-5.393434e-01 -2.196208e-01 3.195086e+00 64 61 58
-6.911847e-01 -2.190954e-01 2.903839e+00 29 24 21
4.098362e-01 -1.004271e-01 1.109810e+00 156 121 83
-7.884875e-01 -2.436021e-01 2.812116e+00 104 97 94
-7.293149e-01 -2.700835e-01 2.880914e+00 32 21 15
-7.289239e-01 -2.715369e-01 2.880804e+00 32 21 15
-6.460006e-01 -2.766593e-01 3.042132e+00 35 24 19
-6.797201e-01 -2.801722e-01 2.972091e+00 51 42 27
-6.779395e-01 -2.783527e-01 2.971962e+00 51 42 27
-6.577907e-01 -2.880162e-01 3.025313e+00 148 139 122
-6.538038e-01 -2.940195e-01 3.066859e+00 160 147 141
-6.535607e-01 -2.940310e-01 3.066686e+00 160 147 141
-6.953477e-01 -2.942278e-01 2.958767e+00 123 121 108
2.002820e-01 -2.319554e-01 2.401252e+00 95 102 92
-7.527443e-01 -3.165023e-01 2.923741e+00 31 25 19
-6.009532e-01 -3.957295e-01 3.069253e+00 190 172 133
-7.507550e-01 -4.309386e-01 2.901100e+00 71 56 45
-6.580292e-01 -4.501363e-01 3.122442e+00 196 174 124
-7.219870e-01 -4.813194e-01 2.880950e+00 50 6 1
4.990828e-01 -1.338636e-01 7.712100e-01 35 10 1
-7.413920e-01 -4.994054e-01 2.827178e+00 43 11 0
-7.413675e-01 -4.999772e-01 2.827051e+00 43 11 0
5.675563e-01 -8.277687e-02 3.887931e-01 52 8 1
-7.414691e-01 -5.423805e-01 2.825155e+00 84 21 0
5.342885e-01 -1.174534e-01 5.841277e-01 178 139 102
-6.878728e-01 -5.873601e-01 2.969064e+00 35 29 8
-8.040217e-01 -5.487182e-01 2.924875e+00 166 97 58
-4.639610e-01 1.283595e-01 2.891063e+00 17 6 3
-6.876021e-01 -6.316804e-01 2.954708e+00 29 19 0
-5.293941e-01 -2.104513e-02 2.956597e+00 49 39 37
-5.961747e-01 -7.635324e-02 3.641242e+00 160 133 83
-6.426593e-01 -3.297631e-01 3.021300e+00 61 51 49
-6.537076e-01 -5.065908e-01 2.834246e+00 18 12 4
-5.785594e-01 -4.078240e-01 3.042821e+00 194 173 132
6.738092e+00 1.500284e+00 -7.134649e+00 178 141 99
-4.643106e-01 2.620158e-02 3.062990e+00 101 40 4
-7.299336e-01 -2.526238e-01 2.875221e+00 128 124 112
-7.559145e-01 -6.792634e-01 2.953834e+00 19 18 18
-5.429713e-01 -1.123309e-01 3.127710e+00 12 12 12
-1.005379e+00 -3.582892e-01 2.807803e+00 39 25 14
-4.382954e-01 1.645741e-02 2.979406e+00 192 122 67
-6.793140e-01 -2.391120e-01 2.907623e+00 129 123 105
-6.765586e-01 -3.174429e-01 3.018075e+00 143 137 113
-7.773870e-01 -5.418552e-01 2.794339e+00 147 80 32
-7.534842e-01 -6.031552e-01 2.818415e+00 52 21 14
-4.394381e-01 2.678366e-02 3.154523e+00 8 5 5
-4.774575e-01 -2.573100e-02 3.076751e+00 176 112 55
-4.070877e-01 3.740150e-02 2.992172e+00 174 117 84
-4.391307e-01 4.728734e-03 3.129772e+00 141 108 98
-4.553685e-01 -1.533525e-02 3.130615e+00 30 5 2
-5.241076e-01 -5.519327e-03 2.941973e+00 34 15 11
-7.657312e-01 -2.001477e-01 2.834391e+00 22 17 14
-5.923083e-01 -2.662475e-01 3.297188e+00 178 163 111
-6.825985e-01 -3.477852e-01 2.970045e+00 48 41 38
-7.082546e-01 -5.985575e-01 2.837845e+00 68 24 3
-6.738095e-01 -3.179001e-01 3.016778e+00 120 115 92
-5.281624e-01 -2.962640e-02 3.030237e+00 40 19 16
-4.214671e-01 1.179135e-01 2.982749e+00 47 5 0
-4.961698e-01 -1.553854e-02 3.063829e+00 196 125 77
-1.014051e+00 9.429160e-02 2.882500e+00 38 23 3
-5.872070e-01 -6.141614e-02 3.318570e+00 11 6 10
-6.998477e-01 -3.128545e-01 2.952928e+00 34 34 23
-6.748480e-01 -5.729247e-01 3.023188e+00 176 157 102
-7.153875e-01 -6.633154e-01 2.976075e+00 167 144 108
-7.468222e-01 -6.762427e-01 2.742276e+00 123 68 39
-7.024119e-01 -5.419142e-01 3.044137e+00 160 137 96
-5.067629e-01 5.426666e-02 3.274586e+00 166 146 111
-4.847677e-01 -2.288877e-02 3.070063e+00 180 124 97
-6.412615e-01 -2.006369e-01 3.336509e+00 19 16 18
-9.538242e-01 1.048849e-01 2.794300e+00 30 22 4
-6.743109e-01 -3.243598e-01 3.034576e+00 144 128 100
-7.235864e-01 -2.869221e-01 2.919020e+00 131 128 111
-6.514351e-01 -2.611691e-01 3.004976e+00 56 51 49
-4.410497e-01 -1.289516e-02 3.424312e+00 161 139 99
9.583071e-01 6.550452e-02 2.450013e+00 160 132 93
-6.986711e-01 -3.135817e-01 2.952439e+00 34 34 23
-7.843884e-01 -2.767082e-01 2.849515e+00 39 35 31
-4.875639e-01 -2.814256e-03 3.134304e+00 149 99 48
-4.359969e-01 4.251898e-02 3.391797e+00 158 136 83
-7.827382e-01 1.745010e-01 2.777561e+00 108 97 75
-5.965495e-01 -5.437707e-02 3.326774e+00 12 9 10
-1.725029e+00 9.150360e-03 3.849469e+00 19 9 1
-5.099820e-01 3.425967e-02 3.258293e+00 165 145 102
7.161426e-01 6.678770e-02 2.436637e+00 165 141 101
-6.900206e-01 -4.644214e-01 3.111171e+00 190 167 132
-6.329382e-01 -1.125627e-01 3.382104e+00 41 29 23
-3.963094e-01 1.366831e-01 3.008637e+00 23 8 5
-3.888425e-01 7.817577e-02 3.002793e+00 179 115 85
-6.942869e-01 -2.795596e-01 2.939141e+00 37 29 18
-7.053935e-01 -2.975531e-01 2.933486e+00 137 126 112
-7.583560e-01 -4.652730e-01 3.143435e+00 35 23 16
-5.551210e-01 3.698198e-03 2.905374e+00 27 11 3
-6.558498e-01 -2.778950e-01 3.076859e+00 34 22 23
-7.884179e-01 -5.681974e-01 2.741392e+00 6 8 8
-7.729928e-01 -4.954268e-01 3.127022e+00 175 149 97
-8.477687e-01 -4.929613e-01 2.717163e+00 20 10 0
-5.525184e-01 -3.662861e-02 3.300795e+00 10 7 3
-7.585480e-01 -5.671690e-01 2.791610e+00 55 22 9
-4.798975e-01 3.952760e-02 3.242773e+00 161 146 107
-9.025151e-01 1.136618e-01 2.750008e+00 121 98 61
-7.696472e-01 -4.234422e-01 2.934625e+00 81 49 27
-7.308456e-01 -6.031139e-01 3.029965e+00 66 47 20
-7.345605e-01 -6.289295e-01 3.009996e+00 45 30 9
-8.767306e-01 -7.207455e-01 2.803591e+00 193 167 118
-4.961459e-01 7.100583e-02 3.259148e+00 33 25 11
-6.520652e-01 -1.984278e-01 3.340028e+00 12 12 14
-7.801826e-01 -4.533895e-01 3.201979e+00 185 161 124
-8.147080e-01 -4.648583e-01 3.139825e+00 45 29 17
-7.067462e-01 -5.161531e-01 2.869106e+00 40 2 1
-7.032292e-01 -5.177714e-01 2.868516e+00 40 2 1
-7.682915e-01 -5.766229e-01 3.072735e+00 59 39 10
-7.098568e-01 -5.863351e-01 2.783953e+00 59 17 0
-8.854298e-01 -5.491344e-01 2.735073e+00 41 26 2
-8.151577e-01 -7.194761e-02 2.763571e+00 12 12 14
-7.201349e-01 2.236529e-01 2.781033e+00 118 89 41
-7.201349e-01 2.236529e-01 2.781033e+00 118 89 41
-5.190850e-01 2.030232e-02 3.141739e+00 181 118 71
-7.767769e-01 -7.533799e-01 2.897319e+00 187 170 113
-4.129485e-01 5.893621e-02 2.948265e+00 192 126 80
-4.612987e-01 1.157334e-02 3.059725e+00 90 32 3
-6.011729e-01 -1.357998e-02 3.071858e+00 204 131 89
-6.879370e-01 -2.658278e-01 3.349137e+00 52 37 17
-6.628137e-01 -2.637692e-01 2.986965e+00 45 38 33
-4.077261e-01 4.185162e-02 3.134507e+00 15 13 12
-8.705044e-01 1.554487e-01 2.858592e+00 119 97 54
-7.619865e-01 -4.830414e-01 2.804330e+00 75 50 19
-7.409553e-01 6.000042e-03 2.776940e+00 55 57 56
-7.378606e-01 -5.774251e-01 2.805943e+00 66 23 3
-4.680906e-01 8.599391e-02 3.276550e+00 147 130 92
-4.710095e-01 1.375068e-02 3.152844e+00 132 93 61
-5.924256e-01 -5.649391e-02 3.365023e+00 12 6 0
-5.424790e-01 1.513385e-03 2.930267e+00 24 6 2
-6.587235e-01 -2.813110e-01 2.987198e+00 85 86 75
-8.787359e-01 -4.456491e-01 2.739981e+00 30 17 1
-7.031984e-01 -5.415275e-01 2.858907e+00 146 104 61
-7.146469e-01 -5.358736e-01 2.821343e+00 37 0 0
-8.363470e-01 -8.613626e-02 2.648837e+00 40 33 29
-5.709511e-01 -1.426632e-02 3.337908e+00 151 134 94
-9.139400e-01 2.144132e-03 2.709367e+00 36 26 14
-4.084606e-01 7.057672e-02 3.054754e+00 129 74 46
-6.842424e-01 -7.843222e-02 3.427061e+00 33 24 1
-6.993194e-01 -1.024141e-01 3.275945e+00 9 8 1
-7.345927e-01 -1.888874e-01 2.836512e+00 35 29 29
-7.238677e-01 -3.185670e-01 2.901691e+00 33 31 25
-8.547609e-01 -4.361723e-01 3.220898e+00 47 35 20
-7.091189e-01 -5.398401e-01 2.857766e+00 162 106 73
-7.108886e-01 -5.921857e-01 2.809548e+00 182 122 74
-7.100688e-01 -5.697261e-01 2.818587e+00 189 125 71
-5.758624e-01 9.782418e-02 3.299982e+00 28 23 19
-5.039234e-01 6.502814e-02 3.219723e+00 5 7 5
-7.790132e-01 -4.356105e-01 2.969001e+00 90 54 30
-3.905497e-01 1.155971e-01 2.998890e+00 131 90 74
-4.012186e-01 9.330560e-02 3.034469e+00 121 81 56
-4.298688e-01 9.202355e-02 3.064034e+00 58 16 0
-4.298688e-01 9.202355e-02 3.064034e+00 58 16 0
-8.022649e-01 1.302070e-01 2.764785e+00 97 82 66
-6.764127e-01 -6.759409e-02 3.395456e+00 20 9 1
-7.163570e-01 -1.056328e-01 3.426991e+00 54 45 18
-6.708417e-01 -2.922622e-01 3.000729e+00 59 50 42
-7.638236e-01 -3.527093e-01 3.402753e+00 185 160 94
-8.783858e-01 3.780909e-02 2.718350e+00 32 29 25
-6.692895e-01 -2.503059e-01 2.870160e+00 111 99 81
-7.442217e-01 -6.584515e-01 2.758631e+00 112 61 36
-4.599412e-01 3.093672e-02 3.066975e+00 157 96 44
-6.340841e-01 -4.578244e-02 3.401973e+00 164 147 110
-7.668118e-01 -6.138568e-01 2.766781e+00 138 90 54
-7.563317e-01 -6.105233e-01 2.760828e+00 138 90 54
-4.945798e-01 -9.495182e-03 3.099654e+00 160 114 76
-8.537598e-01 6.995585e-02 2.712943e+00 34 22 3
-7.004701e-01 -2.045699e-01 2.869599e+00 37 33 31
-6.844160e-01 -5.588696e-01 3.067498e+00 138 121 78
-8.012907e-01 -6.577066e-01 2.704395e+00 175 156 104
-7.274192e-01 -6.439093e-01 3.062476e+00 171 146 89
-8.871675e-01 8.727107e-02 2.717585e+00 132 115 73
-4.548966e-01 1.204353e-01 3.049492e+00 18 6 1
-4.971180e-01 3.384987e-02 3.074547e+00 158 99 52
-4.626908e-01 1.113923e-01 3.093652e+00 21 10 3
-4.190624e-01 7.306934e-02 3.056053e+00 136 82 45
-4.479223e-01 1.239875e-03 3.052126e+00 174 116 102
-7.308286e-01 -1.155174e-01 3.422885e+00 51 40 27
-7.989388e-01 -5.065326e-01 3.112756e+00 145 122 84
-8.211978e-01 -2.648652e-01 2.736651e+00 35 33 32
-8.820152e-01 -3.874591e-01 2.697576e+00 182 152 88
-7.373761e-01 -6.388925e-01 2.886733e+00 8 8 7
-6.036517e-01 1.525261e-02 3.349890e+00 126 100 52
-7.480297e-01 -4.735982e-01 2.931538e+00 29 16 5
-8.012669e-01 9.521044e-02 2.774650e+00 20 21 17
-8.145213e-01 -5.128114e-01 3.093221e+00 25 18 1
-7.760533e-01 -5.827053e-01 2.707443e+00 160 133 82
-7.785305e-01 -7.870146e-01 2.841715e+00 204 176 122
-8.121942e-01 1.125846e-01 2.756017e+00 132 116 88
-6.322695e-01 -1.601130e-01 3.417971e+00 41 29 9
-8.706478e-01 5.803440e-02 2.698499e+00 158 132 91
-7.552723e-01 -4.412646e-01 2.894760e+00 22 4 0
-8.226271e-01 -4.230909e-01 2.755281e+00 40 20 1
-8.576606e-01 -4.951680e-01 2.723326e+00 138 117 89
-7.936786e-01 -7.626656e-01 2.895395e+00 186 164 120
-4.293810e-01 8.563286e-02 3.102306e+00 20 6 1
-4.167916e-01 2.509305e-02 3.035133e+00 155 87 54
-8.169716e-01 -4.255182e-02 2.788777e+00 3 3 5
-6.862147e-01 -3.321811e-01 3.014265e+00 141 132 109
-8.575317e-01 -3.145032e-01 2.715624e+00 44 27 15
-7.718875e-01 -6.067862e-01 2.711333e+00 29 10 1
-7.050913e-01 1.889315e-01 2.796140e+00 136 108 59
-6.915471e-01 1.606079e-01 2.813349e+00 22 12 4
-7.857044e-01 -4.333584e-01 2.967965e+00 93 48 22
-7.950681e-01 -4.413128e-01 2.710849e+00 176 144 93
-7.614147e-01 -4.527468e-01 2.706286e+00 170 139 92
-4.256292e-01 2.777042e-02 3.067246e+00 167 106 60
-7.109042e-01 1.191798e-01 2.721988e+00 17 8 1
-7.297502e-01 -2.009390e-01 2.832072e+00 108 100 93
-7.172698e-01 -3.504427e-01 2.986652e+00 32 26 28
-8.374909e-01 -3.525894e-01 2.712986e+00 182 155 117
-7.114602e-01 -4.808951e-01 2.855687e+00 51 2 0
-9.631859e-01 -5.276991e-01 3.059380e+00 51 34 12
-8.022274e-01 -4.630310e-01 2.718482e+00 54 28 6
-7.231288e-01 -5.775565e-01 2.839438e+00 178 112 68
-7.555019e-01 -6.067258e-01 2.759780e+00 131 101 79
-4.422522e-01 4.730233e-02 3.077163e+00 99 44 2
-9.122288e-01 -2.892554e-01 2.697946e+00 155 133 94
-7.049358e-01 -5.884056e-01 3.012671e+00 73 65 51
-6.949819e-01 -3.299128e-01 2.989729e+00 135 132 113
-5.334997e-01 -2.961341e-02 3.112718e+00 26 7 0
-6.705682e-01 -2.601430e-01 2.853969e+00 121 109 97
-6.892558e-01 -2.205008e-01 2.882717e+00 36 34 32
-7.732524e-01 -5.919340e-01 3.064979e+00 47 32 3
-7.037551e-01 2.369688e-01 2.822893e+00 14 9 7
-7.175400e-01 -6.160795e-01 2.882500e+00 58 14 0
-7.403701e-01 -5.479413e-01 2.874659e+00 147 76 25
-8.082133e-01 1.155494e-01 2.757820e+00 141 118 67
-7.851922e-01 -4.023893e-01 2.715694e+00 167 140 89
-8.324086e-01 7.872331e-02 2.711124e+00 153 130 90
-8.165935e-01 -8.995646e-03 2.688065e+00 26 18 14
-7.566880e-01 1.905894e-01 2.806820e+00 136 111 69
-4.509790e-01 2.685220e-02 3.029885e+00 164 93 62
-5.727135e-01 3.417847e-02 2.864399e+00 59 31 21
-7.117274e-01 -2.888679e-01 2.875499e+00 35 30 25
-7.117274e-01 -2.888679e-01 2.875499e+00 35 30 25
-8.217887e-01 -5.313135e-03 2.811770e+00 9 8 6
-9.586184e-01 2.559255e-03 2.697267e+00 169 140 101
-4.480201e-01 -2.893353e-02 3.024905e+00 21 0 0
-9.214992e-01 4.336511e-02 2.710300e+00 47 31 13
-6.840444e-01 -2.422225e-01 2.893993e+00 114 107 89
-5.336742e-01 1.057722e-01 2.895845e+00 22 5 1
-4.131839e-01 -1.980880e-02 3.054816e+00 28 7 3
-4.779431e-01 -9.156769e-03 2.960888e+00 178 126 89
-8.422371e-01 -1.347537e-01 2.682033e+00 62 46 27
-7.318382e-01 -2.675174e-01 2.900354e+00 37 29 18
-1.191013e+00 -3.365737e-01 3.160511e+00 38 25 11
-8.492876e-01 -4.774058e-01 2.733293e+00 27 15 3
-7.751906e-01 -6.972556e-01 2.725622e+00 196 171 122
-9.251111e-01 1.126509e-02 2.695789e+00 167 140 97
-6.657238e-01 1.331765e-01 2.853781e+00 12 16 15
-9.670623e-01 -1.440131e-01 2.712938e+00 54 41 24
-1.080762e+00 2.274084e-01 2.693819e+00 168 140 101
-5.346690e-01 -5.637304e-02 3.155702e+00 17 17 15
-3.630833e-01 -7.637580e-03 3.027227e+00 92 21 3
-3.961575e-01 -8.964831e-03 3.057740e+00 185 130 110
-6.878195e-01 -2.665732e-01 2.927092e+00 152 147 132
-8.288702e-01 -5.559627e-01 2.706643e+00 164 140 104
-1.595410e+00 3.613964e-01 2.567256e+00 145 111 53
-9.248897e-01 -6.340371e-01 3.029458e+00 166 144 92
-1.665064e+00 3.991988e-01 2.579429e+00 23 2 0
-9.068359e-01 6.460101e-02 2.720987e+00 30 11 1
-7.044608e-01 -2.225427e-01 2.859092e+00 44 39 31
-6.676900e-01 -3.166031e-01 3.029941e+00 132 123 102
-1.480820e+00 1.321365e-02 2.724381e+00 169 140 100
-7.275863e-01 -2.636419e-01 2.883170e+00 30 25 21
-8.372696e-01 -4.843466e-01 2.720181e+00 167 143 107
-7.473500e-01 -7.080995e-01 2.774575e+00 19 16 10
-6.498586e-01 -5.914973e-01 2.805662e+00 217 141 96
-7.555946e-01 1.216828e-01 2.788771e+00 55 43 36
-7.870697e-01 -4.306088e-01 2.822056e+00 8 7 2
-8.657373e-01 -5.970944e-01 2.733470e+00 21 8 0
-1.413245e+00 3.383466e-01 2.650931e+00 170 138 104
-1.396697e+00 3.304339e-01 2.688118e+00 18 6 0
-1.390078e+00 2.854348e-01 2.693513e+00 28 11 4
-4.264508e-01 -3.690151e-02 3.014044e+00 37 11 3
-4.387670e-01 -2.170657e-02 2.957528e+00 180 121 89
-8.145458e-01 1.128129e-01 2.768934e+00 56 41 28
-9.068434e-01 1.059603e-01 2.734087e+00 23 10 2
-9.913992e-01 3.462389e-02 2.709716e+00 27 10 1
-7.626471e-01 -3.151669e-01 2.721865e+00 183 158 115
-8.521240e-01 -4.325247e-01 2.732927e+00 62 41 6
-8.521240e-01 -4.325247e-01 2.732927e+00 62 41 6
-6.715628e-01 -5.723025e-01 2.834002e+00 176 110 70
-7.675552e-01 -6.052142e-01 2.745775e+00 20 10 0
-8.381768e-01 1.255891e-01 2.754214e+00 165 141 99
-3.298697e-01 -8.613773e-03 3.003067e+00 168 97 51
-9.875698e-01 6.107119e-02 2.713978e+00 47 33 23
-9.489191e-01 -3.856171e-01 3.222896e+00 158 134 94
-7.238074e-01 -4.855067e-01 2.839591e+00 165 100 84
-4.643076e-01 5.133406e-02 2.932014e+00 126 53 10
1.125744e-01 -2.059661e-02 2.687814e+00 177 153 119
-6.263446e-01 -9.802735e-02 3.272271e+00 5 3 4
-5.482155e-01 9.287951e-03 2.881097e+00 154 97 57
-6.875749e-01 -3.376780e-01 3.029264e+00 29 27 11
-6.955608e-01 -3.273829e-01 2.989887e+00 143 137 121
-8.857410e-01 -3.733731e-01 2.787278e+00 17 11 2
-7.660897e-01 -5.575039e-01 2.959958e+00 5 6 6
-8.646610e-01 -3.540027e-01 2.859070e+00 5 5 3
-8.205934e-01 -4.703946e-01 2.723930e+00 179 157 102
-7.290389e-01 -6.894587e-01 2.715372e+00 206 181 125
-8.600898e-01 -4.705343e-01 2.759467e+00 20 7 3
-7.157979e-01 -2.076398e-01 2.863128e+00 103 95 93
-7.321562e-01 -4.857766e-01 2.769343e+00 84 70 58
-9.631639e-01 -6.882577e-01 2.888402e+00 182 163 123
-6.669549e-01 -5.592806e-01 2.837726e+00 54 7 0
-1.236437e+00 2.901207e-01 2.662734e+00 161 136 101
-9.841477e-01 1.044435e-01 2.730145e+00 49 31 9
-1.052288e+00 9.143989e-02 2.702221e+00 167 137 93
-6.792902e-01 -2.252498e-01 2.932257e+00 32 29 25
-6.542731e-01 -3.442051e-01 3.046628e+00 133 122 110
-8.470539e-01 -2.102335e-01 2.809413e+00 104 99 94
-7.843488e-01 -2.408912e-01 2.931935e+00 30 24 24
-7.795258e-01 -2.148057e-01 2.843173e+00 131 120 102
-7.795258e-01 -2.148057e-01 2.843173e+00 131 120 102
-6.688083e-01 -5.804148e-01 2.803670e+00 208 139 90
-9.973557e-01 -3.533214e-01 2.741470e+00 16 7 1
-9.917372e-01 -2.544978e-01 2.745443e+00 40 25 17
-7.892282e-01 -4.282394e-01 2.823084e+00 25 7 3
-1.024045e+00 -5.162926e-01 3.031047e+00 118 100 60
-9.474442e-01 -9.952812e-02 2.759574e+00 20 18 21
-9.474442e-01 -9.952812e-02 2.759574e+00 20 18 21
-5.939141e-01 -2.670607e-01 2.977583e+00 111 106 96
6.179871e-01 -3.479929e-02 9.651433e-02 0 255 0
6.399899e-01 -2.734384e-02 5.223913e-02 255 255 0
6.159931e-01 -3.691124e-02 1.066477e-01 255 0 0
6.379731e-01 -2.982857e-02 6.230001e-02 255 255 0
7.048596e-01 -1.006232e-02 1.391926e-01 0 255 0
7.286662e-01 -2.184523e-03 9.593540e-02 255 255 0
-1.986076e+00 -3.667988e-01 5.706900e+00 255 0 0
-1.967151e+00 -3.686605e-01 5.660658e+00 255 255 0
-2.078417e+00 -2.975114e-01 5.619110e+00 0 255 0
-2.057696e+00 -3.001988e-01 5.573685e+00 255 255 0
1.169002e+00 7.517086e-02 4.422645e-01 255 0 0
1.200552e+00 8.329233e-02 4.043355e-01 255 255 0
-2.215628e+00 -4.110611e-01 5.552989e+00 0 255 0
-2.192244e+00 -4.117688e-01 5.508800e+00 255 255 0
-2.297605e+00 -4.034519e-01 5.488953e+00 255 0 0
-2.273047e+00 -4.049334e-01 5.445424e+00 255 255 0
-2.376814e+00 -3.947500e-01 5.407198e+00 0 255 0
-2.350970e+00 -3.975249e-01 5.364484e+00 255 255 0
1.353220e+00 -1.043315e-01 6.319651e-01 255 0 0
1.387871e+00 -9.810843e-02 5.964600e-01 255 255 0
-2.513104e+00 -2.414746e-01 5.272107e+00 0 255 0
-2.484567e+00 -2.456767e-01 5.231265e+00 255 255 0
-2.588572e+00 -2.169726e-01 5.208206e+00 255 0 0
-2.558689e+00 -2.214079e-01 5.168365e+00 255 255 0
-2.710191e+00 -1.523921e-01 5.127109e+00 0 255 0
-2.678586e+00 -1.577235e-01 5.088733e+00 255 255 0
-2.859574e+00 -1.717505e-01 5.019924e+00 255 0 0
-2.825253e+00 -1.768224e-01 4.983920e+00 255 255 0
1.907915e+00 -2.854999e-01 1.122494e+00 0 255 0
1.949963e+00 -2.829179e-01 1.095564e+00 255 255 0
-3.146361e+00 -1.341102e-01 4.735928e+00 255 0 0
-3.107648e+00 -1.390869e-01 4.704678e+00 255 255 0
-3.222846e+00 -7.378784e-02 4.650579e+00 0 255 0
-3.182793e+00 -7.970474e-02 4.621239e+00 255 255 0
-3.285639e+00 -1.163522e-01 4.539742e+00 255 0 0
-3.244396e+00 -1.214708e-01 4.511943e+00 255 255 0
-3.359673e+00 3.054377e-02 4.396139e+00 0 255 0
-3.317550e+00 2.261449e-02 4.370394e+00 255 255 0
-3.416424e+00 1.060868e-01 4.310928e+00 255 0 0
-3.373171e+00 9.732067e-02 4.287425e+00 255 255 0
-3.526791e+00 1.009118e-01 4.127795e+00 0 255 0
-3.481928e+00 9.237082e-02 4.107439e+00 255 255 0
-3.617205e+00 2.006924e-01 3.922182e+00 255 0 0
-3.571515e+00 1.908432e-01 3.904422e+00 255 255 0
-3.696996e+00 2.733968e-01 3.525867e+00 0 255 0
-3.649554e+00 2.626841e-01 3.514268e+00 255 255 0
-3.606629e+00 2.850418e-01 3.177143e+00 255 0 0
-3.558567e+00 2.726701e-01 3.171064e+00 255 255 0
-3.526207e+00 4.201104e-01 3.123617e+00 0 255 0
-3.478768e+00 4.053002e-01 3.118117e+00 255 255 0
2.330837e+00 -7.953574e-02 2.312571e+00 255 0 0
2.379987e+00 -7.434159e-02 2.304998e+00 255 255 0
-3.666953e+00 2.859947e-01 3.397969e+00 0 255 0
-3.619240e+00 2.745884e-01 3.388308e+00 255 255 0
-3.459115e+00 4.596187e-01 3.035588e+00 255 0 0
-3.411739e+00 4.441457e-01 3.031577e+00 255 255 0
-3.375068e+00 5.001588e-01 2.930145e+00 0 255 0
-3.327868e+00 4.838118e-01 2.927923e+00 255 255 0
2.057033e+00 -4.650095e-01 3.057676e+00 255 0 0
2.106903e+00 -4.656139e-01 3.061223e+00 255 255 0
-3.233837e+00 5.739727e-01 2.725137e+00 0 255 0
-3.187594e+00 5.550569e-01 2.727092e+00 255 255 0
-3.126816e+00 6.467980e-01 2.739982e+00 255 0 0
-3.081431e+00 6.258442e-01 2.741088e+00 255 255 0
-3.034401e+00 6.491293e-01 2.688352e+00 0 255 0
-2.989616e+00 6.272017e-01 2.692023e+00 255 255 0
-2.962958e+00 6.562029e-01 2.658305e+00 255 0 0
-2.918641e+00 6.335899e-01 2.663267e+00 255 255 0
-2.907908e+00 6.720749e-01 2.630483e+00 0 255 0
-2.863908e+00 6.490175e-01 2.636176e+00 255 255 0
-2.864284e+00 6.951705e-01 2.591761e+00 255 0 0
-2.820830e+00 6.710899e-01 2.597413e+00 255 255 0
-2.811367e+00 7.272295e-01 2.543299e+00 0 255 0
-2.769174e+00 7.014891e-01 2.550865e+00 255 255 0
