ply
format ascii 1.0
element vertex 136
property float x
property float y
property float z
property uchar diffuse_red
property uchar diffuse_green
property uchar diffuse_blue
end_header
-2.044721e-01 -5.898514e-01 3.144115e+00 202 172 110
-8.604318e-01 -6.625895e-01 2.854855e+00 46 18 5
-8.604318e-01 -6.625895e-01 2.854855e+00 46 18 5
-1.717940e-01 -1.574054e-01 3.364691e+00 182 151 87
-6.744424e-01 -5.249139e-01 3.025083e+00 25 23 20
-3.693906e-01 1.271691e-01 3.034255e+00 156 90 40
1.534915e-01 1.008992e-01 3.432026e+00 173 144 83
-3.849071e-01 -1.742783e-01 3.162535e+00 24 22 23
-7.138673e-01 -2.706366e-01 2.975963e+00 110 101 91
-7.080132e-01 -2.689755e-01 2.947768e+00 110 101 91
-5.169245e-01 -5.948077e-01 2.988247e+00 202 173 107
-7.791423e-01 -9.094211e-01 2.863867e+00 18 13 9
-8.309135e-02 2.240597e-01 3.276280e+00 177 143 82
-9.856695e-02 9.622786e-02 3.561322e+00 41 23 15
-4.632751e-01 -3.590926e-01 3.121990e+00 44 40 43
3.442464e-01 -1.831072e-01 2.746326e+00 25 14 10
-8.025857e-01 -6.543789e-01 2.848388e+00 138 71 29
-6.438150e-01 -7.631351e-01 2.935678e+00 13 3 1
-1.485823e-01 1.568908e-01 3.382690e+00 64 34 10
-1.912597e-01 1.011446e-01 3.213887e+00 165 130 75
-3.254014e-01 6.992964e-02 3.073501e+00 192 123 74
3.867132e-01 5.099890e-02 3.478050e+00 162 130 69
3.867132e-01 5.099890e-02 3.478050e+00 162 130 69
4.049708e-01 -5.288151e-02 3.108493e+00 174 140 74
-5.413707e-01 -4.841601e-01 3.067303e+00 58 49 50
-4.016429e-01 2.324881e-01 2.999627e+00 14 3 1
-4.646437e-01 2.251433e-01 2.961585e+00 11 7 7
-3.959812e-01 1.923606e-01 2.991367e+00 147 91 43
-3.419828e-02 1.463600e-01 3.399582e+00 169 139 84
-2.853263e-01 -1.667440e-01 3.230999e+00 190 163 102
-5.889348e-01 -7.873091e-01 2.962234e+00 200 174 116
-8.408043e-01 -8.120895e-01 2.812376e+00 12 4 1
1.916142e-01 -2.646225e-03 9.074387e-01 168 139 84
-6.539551e-01 -2.492462e-01 2.950193e+00 119 113 91
4.071272e-01 -3.056716e-01 3.153193e+00 19 11 2
-6.760023e-01 -6.917605e-01 2.901241e+00 197 133 91
-6.327676e-01 -8.777178e-01 2.907901e+00 202 175 122
-1.595159e-01 8.700793e-02 3.371810e+00 170 142 96
-2.447569e-01 -1.904652e-02 3.201115e+00 181 157 113
3.962444e-01 -1.340644e-01 3.637262e+00 17 9 0
-5.737348e-01 -3.521202e-01 3.017348e+00 144 134 116
-5.958096e-01 -6.754975e-01 2.988473e+00 165 140 99
-7.615255e-01 -6.694548e-01 2.859912e+00 173 104 63
-7.563291e-01 -6.799064e-01 2.764216e+00 47 16 1
-8.300542e-01 -7.331987e-01 2.798683e+00 98 53 31
-6.914994e-01 -7.533899e-01 2.889220e+00 39 5 2
-6.911091e-01 -7.960832e-01 2.885798e+00 186 137 97
-6.916079e-01 -7.957749e-01 2.887029e+00 186 137 97
-7.891606e-01 -8.313708e-01 2.819244e+00 116 66 37
2.547539e-01 2.778111e-01 3.696611e+00 23 4 0
2.547539e-01 2.778111e-01 3.696611e+00 23 4 0
-1.675785e-01 2.263042e-01 3.542597e+00 177 149 125
-5.477252e-02 1.082023e-01 3.633216e+00 18 5 0
2.485137e-02 8.605681e-02 3.274796e+00 180 161 131
2.285237e-02 8.707683e-02 3.441066e+00 180 161 131
-9.325576e-02 4.191258e-02 3.378830e+00 170 138 94
4.346637e-01 -6.101506e-02 3.033115e+00 171 155 110
4.346637e-01 -6.101506e-02 3.033115e+00 171 155 110
3.845347e-01 -8.505359e-02 3.201057e+00 183 157 118
3.845347e-01 -8.505359e-02 3.201057e+00 183 157 118
3.781932e-01 -1.853470e-01 3.643752e+00 160 137 112
2.820423e-01 -9.427405e-02 2.155958e+00 160 137 112
-7.668116e-01 -2.273113e-01 2.888917e+00 150 142 129
-7.668116e-01 -2.273113e-01 2.888917e+00 150 142 129
-5.955068e-01 -2.402731e-01 2.988690e+00 130 117 111
4.269839e-01 -2.739280e-01 3.098061e+00 83 93 83
4.269839e-01 -2.739280e-01 3.098061e+00 83 93 83
-6.519677e-01 -2.921449e-01 2.965218e+00 33 29 18
-6.547965e-01 -5.733622e-01 2.931001e+00 29 16 6
-6.691456e-01 -6.464058e-01 2.923089e+00 121 94 67
-6.948159e-01 -6.510282e-01 2.881751e+00 47 5 0
-7.078251e-01 -9.161645e-01 2.882106e+00 25 12 1
-8.526082e-01 -9.712199e-01 2.828030e+00 184 158 120
-8.231782e-01 -9.933744e-01 2.878099e+00 198 172 124
-1.208008e+00 3.287152e-01 3.435643e+00 93 75 51
-9.769897e-02 3.065998e-01 3.548668e+00 27 23 22
-2.990124e-01 2.396408e-01 3.050545e+00 120 91 78
-4.148163e-01 2.037098e-01 2.988563e+00 126 75 41
-2.526785e-01 1.565551e-01 3.076004e+00 166 110 89
-2.526785e-01 1.565551e-01 3.076004e+00 166 110 89
-3.053082e-01 1.193808e-01 3.024579e+00 121 48 1
-3.053082e-01 1.193808e-01 3.024579e+00 121 48 1
-4.685118e-01 1.128228e-01 2.962292e+00 158 95 59
-8.122294e-01 1.063799e-01 2.803598e+00 12 11 11
4.739422e-01 8.377294e-02 3.945057e+00 29 6 0
4.739422e-01 8.377294e-02 3.945057e+00 29 6 0
-8.286200e-01 8.740621e-02 3.993815e+00 14 12 14
-3.667644e-01 3.787516e-02 3.089739e+00 49 8 1
1.071683e-01 -6.415592e-02 2.697828e+00 164 132 91
7.414264e-02 9.534087e-02 -7.213646e-01 161 129 83
3.606774e-01 -1.397913e-01 2.661205e+00 144 140 118
4.401667e-01 -2.101858e-01 3.415342e+00 13 12 3
-3.492611e-01 -2.135094e-01 3.201442e+00 64 61 58
-6.530414e-01 -2.133697e-01 2.936158e+00 29 24 21
2.817253e-01 -1.762777e-01 2.408545e+00 156 121 83
-8.305024e-01 -2.529318e-01 2.907770e+00 104 97 94
-7.156536e-01 -2.808316e-01 2.931059e+00 32 21 15
-7.156536e-01 -2.808316e-01 2.931059e+00 32 21 15
-5.366574e-01 -2.902653e-01 3.037222e+00 35 24 19
-6.089633e-01 -2.930723e-01 2.987047e+00 51 42 27
-6.085233e-01 -2.928837e-01 2.986421e+00 51 42 27
-5.591948e-01 -3.049440e-01 3.025646e+00 148 139 122
-5.281395e-01 -3.134710e-01 3.044957e+00 160 147 141
-5.275037e-01 -3.137025e-01 3.042504e+00 160 147 141
-6.353045e-01 -3.146606e-01 2.970888e+00 123 121 108
4.191191e-01 -3.158692e-01 3.036594e+00 95 102 92
-7.241766e-01 -3.465902e-01 2.946397e+00 31 25 19
-4.758982e-01 -4.550547e-01 3.101880e+00 190 172 133
-7.378826e-01 -5.039281e-01 2.955014e+00 71 56 45
-5.339327e-01 -5.309370e-01 3.147189e+00 196 174 124
-7.013503e-01 -5.714054e-01 2.919439e+00 50 6 1
4.319600e-01 -5.501003e-01 2.911047e+00 35 10 1
-7.444946e-01 -5.974646e-01 2.865812e+00 43 11 0
-7.464472e-01 -5.996370e-01 2.870264e+00 43 11 0
3.835205e-01 -4.947820e-01 2.217009e+00 52 8 1
-7.419224e-01 -6.557055e-01 2.860126e+00 84 21 0
4.357023e-01 -6.113406e-01 2.741404e+00 178 139 102
-6.168772e-01 -7.075823e-01 2.976850e+00 35 29 8
-6.766726e-01 -9.155058e-01 2.900544e+00 178 155 115
-7.853818e-01 -6.670635e-01 2.919262e+00 166 97 58
-3.886504e-01 2.420186e-01 2.976859e+00 17 6 3
-6.238740e-01 -7.824175e-01 2.957538e+00 29 19 0
6.517469e-02 1.193348e-01 -1.165332e+00 0 255 0
7.486539e-02 1.278429e-01 -1.213640e+00 255 255 0
6.983892e-02 1.038172e-01 -1.151542e+00 255 0 0
7.954148e-02 1.118094e-01 -1.199936e+00 255 255 0
2.583018e-01 1.460610e-01 -1.132595e+00 0 255 0
2.707548e-01 1.549055e-01 -1.180205e+00 255 255 0
-1.566532e+00 -4.456683e-01 7.061431e+00 255 0 0
-1.557909e+00 -4.471574e-01 7.012203e+00 255 255 0
-2.194190e+00 -4.116737e-01 6.838293e+00 0 255 0
-2.177938e+00 -4.132483e-01 6.791034e+00 255 255 0
1.634971e+00 3.453820e-01 -4.883058e-01 255 0 0
1.664059e+00 3.554584e-01 -5.277059e-01 255 255 0
-2.634822e+00 -3.041118e-01 6.621545e+00 0 255 0
-2.612788e+00 -3.068776e-01 6.576747e+00 255 255 0
