ply
format ascii 1.0
element vertex 526
property float x
property float y
property float z
property uchar diffuse_red
property uchar diffuse_green
property uchar diffuse_blue
end_header
-5.349202e-01 -4.013586e-01 3.055912e+00 202 172 110
-5.675436e-01 -1.848011e-01 3.251718e+00 182 151 87
-7.602858e-01 -3.571315e-01 2.930673e+00 25 23 20
-5.782218e-01 -1.443443e-02 2.957578e+00 156 90 40
-4.151783e-01 -3.977226e-02 3.398350e+00 173 144 83
-6.759827e-01 -1.913942e-01 3.139254e+00 24 22 23
-8.153555e-01 -2.274262e-01 2.995842e+00 110 101 91
-7.726805e-01 -2.236367e-01 2.915489e+00 110 101 91
-7.326158e-01 -4.060734e-01 3.034917e+00 202 173 107
-4.925305e-01 3.355418e-02 3.203683e+00 177 143 82
-5.727605e-01 -3.582269e-02 3.430152e+00 41 23 15
-6.927562e-01 -2.783218e-01 3.082146e+00 44 40 43
9.801097e-02 -9.777530e-02 1.624956e+00 25 14 10
-8.021475e-01 -4.196343e-01 2.818059e+00 138 71 29
-7.403450e-01 -4.858105e-01 2.900247e+00 13 3 1
-5.575240e-01 -1.041809e-03 3.286640e+00 64 34 10
-5.216263e-01 -3.255325e-02 3.095346e+00 165 130 75
-5.659567e-01 -4.568341e-02 2.990701e+00 192 123 74
-2.698760e-01 -7.243455e-02 3.336884e+00 162 130 69
-2.698760e-01 -7.243455e-02 3.336884e+00 162 130 69
-1.702064e-02 -9.337358e-02 2.220833e+00 174 140 74
-7.382069e-01 -3.437074e-01 3.062368e+00 58 49 50
-5.826366e-01 4.717135e-02 2.924781e+00 14 3 1
-6.062879e-01 3.600397e-02 2.882417e+00 11 7 7
-5.751971e-01 2.485293e-02 2.910933e+00 147 91 43
-4.908146e-01 -9.986421e-03 3.287841e+00 169 139 84
-6.038678e-01 -1.791359e-01 3.149840e+00 190 163 102
-7.170766e-01 -5.014579e-01 2.924162e+00 200 174 116
-8.196916e-01 -5.031559e-01 2.786989e+00 12 4 1
2.007103e-01 -5.513744e-02 1.137626e+00 168 139 84
-7.411519e-01 -2.144898e-01 2.913932e+00 119 113 91
-1.961733e-02 -1.719527e-01 2.213421e+00 19 11 2
-7.633698e-01 -4.443733e-01 2.894183e+00 197 133 91
-7.319966e-01 -5.477866e-01 2.877424e+00 202 175 122
-3.316657e-01 -1.814852e-01 3.597443e+00 17 9 0
-7.317616e-01 -2.705983e-01 2.998047e+00 144 134 116
-7.229216e-01 -4.399032e-01 2.945295e+00 165 140 99
-7.818035e-01 -4.306454e-01 2.822343e+00 173 104 63
-7.722903e-01 -4.394042e-01 2.789150e+00 47 16 1
-8.238375e-01 -4.685442e-01 2.804143e+00 98 53 31
-7.552305e-01 -4.813629e-01 2.846999e+00 39 5 2
-7.560479e-01 -5.058443e-01 2.845555e+00 186 137 97
-7.558340e-01 -5.056740e-01 2.845690e+00 186 137 97
-7.889492e-01 -5.096164e-01 2.794305e+00 116 66 37
-4.045533e-01 5.961466e-02 3.591782e+00 23 4 0
-4.045533e-01 5.961466e-02 3.591782e+00 23 4 0
-8.955908e-01 6.709006e-02 4.263690e+00 177 149 125
-8.803202e-01 -2.553626e-02 4.491830e+00 18 5 0
-4.130860e-01 -4.493007e-02 3.133081e+00 180 161 131
-4.827080e-01 -4.423002e-02 3.365325e+00 180 161 131
-5.005014e-01 -6.959600e-02 3.208757e+00 170 138 94
4.839728e-04 -9.608710e-02 2.190834e+00 171 155 110
4.839728e-04 -9.608710e-02 2.190834e+00 171 155 110
-8.893689e-02 -1.154617e-01 2.515340e+00 183 157 118
-8.893689e-02 -1.154617e-01 2.515340e+00 183 157 118
-3.501652e-01 -2.123760e-01 3.624588e+00 160 137 112
1.347863e-01 -7.591602e-02 1.439935e+00 160 137 112
-7.856162e-01 -1.992451e-01 2.857373e+00 150 142 129
-7.856154e-01 -1.991702e-01 2.857425e+00 150 142 129
-7.197838e-01 -2.106104e-01 2.950141e+00 130 117 111
3.329864e-02 -1.433708e-01 1.993013e+00 83 93 83
3.329864e-02 -1.433708e-01 1.993013e+00 83 93 83
-7.467742e-01 -2.361650e-01 2.931022e+00 33 29 18
-7.491024e-01 -3.867292e-01 2.905727e+00 29 16 6
-7.502935e-01 -4.233819e-01 2.887846e+00 121 94 67
-7.562240e-01 -4.243718e-01 2.852889e+00 47 5 0
-7.680146e-01 -5.660843e-01 2.854635e+00 25 12 1
-8.347154e-01 -5.907592e-01 2.816895e+00 184 158 120
-8.518542e-01 -6.171518e-01 2.873461e+00 198 172 124
-1.403127e+00 1.540503e-01 3.600353e+00 93 75 51
-7.794095e-01 1.159444e-01 4.086393e+00 27 23 22
-5.433201e-01 4.796137e-02 2.976642e+00 120 91 78
-5.836309e-01 2.971916e-02 2.905049e+00 126 75 41
-5.273107e-01 -1.198194e-03 3.003191e+00 166 110 89
-5.273107e-01 -1.198194e-03 3.003191e+00 166 110 89
-5.327123e-01 -1.355247e-02 2.942348e+00 121 48 1
-5.344324e-01 -1.423058e-02 2.943933e+00 121 48 1
-6.189121e-01 -2.268144e-02 2.902665e+00 158 95 59
-7.981827e-01 -1.699288e-02 2.815999e+00 12 11 11
-5.228306e-01 -6.222970e-02 4.717813e+00 29 6 0
-5.228306e-01 -6.222970e-02 4.717813e+00 29 6 0
-2.232963e+00 -2.498043e-03 6.009317e+00 14 12 14
-6.067521e-01 -6.519020e-02 3.031036e+00 49 8 1
3.591156e-03 -8.115311e-02 1.796666e+00 164 132 91
2.480844e-01 -4.233298e-02 9.206570e-01 161 129 83
1.171115e-01 -8.604259e-02 1.557095e+00 144 140 118
-2.060109e-01 -2.032642e-01 3.149510e+00 13 12 3
-6.309081e-01 -2.014525e-01 3.117319e+00 64 61 58
-7.384613e-01 -1.932926e-01 2.904719e+00 29 24 21
1.276713e-01 -8.784450e-02 1.457045e+00 156 121 83
-8.118551e-01 -2.071341e-01 2.842090e+00 104 97 94
-7.685396e-01 -2.291846e-01 2.888954e+00 32 21 15
-7.685202e-01 -2.302594e-01 2.889002e+00 32 21 15
-7.079757e-01 -2.381441e-01 3.004228e+00 35 24 19
-7.330575e-01 -2.387303e-01 2.954391e+00 51 42 27
-7.310169e-01 -2.374661e-01 2.953677e+00 51 42 27
-7.167167e-01 -2.453023e-01 2.992143e+00 148 139 122
-7.143687e-01 -2.499972e-01 3.022413e+00 160 147 141
-7.142343e-01 -2.500493e-01 3.022296e+00 160 147 141
-7.443514e-01 -2.480181e-01 2.944654e+00 123 121 108
-3.240006e-02 -1.888818e-01 2.308603e+00 95 102 92
-7.853550e-01 -2.628585e-01 2.916758e+00 31 25 19
-6.760181e-01 -3.258914e-01 3.017799e+00 190 172 133
-7.845469e-01 -3.456621e-01 2.895277e+00 71 56 45
-7.197168e-01 -3.650484e-01 3.056849e+00 196 174 124
-7.650679e-01 -3.827306e-01 2.880737e+00 50 6 1
2.006221e-01 -8.862473e-02 1.170511e+00 35 10 1
-7.801688e-01 -3.946925e-01 2.843846e+00 43 11 0
-7.807965e-01 -3.949542e-01 2.844823e+00 43 11 0
2.276888e-01 -6.946415e-02 1.038422e+00 52 8 1
-7.812625e-01 -4.260256e-01 2.841602e+00 84 21 0
2.127599e-01 -8.474732e-02 1.114634e+00 178 139 102
-7.455654e-01 -4.630113e-01 2.947274e+00 35 29 8
-8.284785e-01 -4.300485e-01 2.914770e+00 166 97 58
-5.644328e-01 5.351028e-02 2.900882e+00 17 6 3
-7.459760e-01 -4.934721e-01 2.935828e+00 29 19 0
-6.161034e-01 -5.417318e-02 2.945909e+00 49 39 37
-6.743519e-01 -1.015211e-01 3.444556e+00 160 133 83
-7.067455e-01 -2.763328e-01 2.988636e+00 61 51 49
-7.195229e-01 -4.017420e-01 2.854990e+00 18 12 4
-6.618750e-01 -3.347945e-01 3.003105e+00 194 173 132
5.976713e+00 1.228453e+00 -5.918887e+00 178 141 99
-5.678670e-01 -2.259874e-02 3.023348e+00 101 40 4
-7.677276e-01 -2.163723e-01 2.883996e+00 128 124 112
-7.966499e-01 -5.264095e-01 2.933886e+00 19 18 18
-6.298562e-01 -1.221993e-01 3.069264e+00 12 12 12
-9.697003e-01 -2.855740e-01 2.832191e+00 39 25 14
-5.454870e-01 -2.899393e-02 2.959351e+00 192 122 67
-7.293733e-01 -2.081610e-01 2.905684e+00 129 123 105
-7.317932e-01 -2.660900e-01 2.986885e+00 143 137 113
-8.073824e-01 -4.242976e-01 2.819368e+00 147 80 32
-7.917543e-01 -4.696744e-01 2.836341e+00 52 21 14
-5.508246e-01 -2.405628e-02 3.090407e+00 8 5 5
-5.789968e-01 -6.030221e-02 3.032855e+00 176 112 55
-5.216419e-01 -1.472568e-02 2.967812e+00 174 117 84
-5.509121e-01 -3.977493e-02 3.072121e+00 141 108 98
-5.632239e-01 -5.395878e-02 3.072390e+00 30 5 2
-6.102139e-01 -4.267604e-02 2.933389e+00 34 15 11
-7.917475e-01 -1.770056e-01 2.854102e+00 22 17 14
-6.715408e-01 -2.348323e-01 3.190893e+00 178 163 111
-7.357376e-01 -2.878142e-01 2.950818e+00 48 41 38
-7.597771e-01 -4.659732e-01 2.852616e+00 68 24 3
-7.294542e-01 -2.668904e-01 2.985769e+00 120 115 92
-6.144265e-01 -6.132911e-02 2.997327e+00 40 19 16
-5.291488e-01 4.383795e-02 2.961767e+00 47 5 0
-5.914342e-01 -5.227690e-02 3.022563e+00 196 125 77
-9.649336e-01 4.207111e-02 2.890462e+00 38 23 3
-6.628411e-01 -8.663003e-02 3.208788e+00 11 6 10
-7.490823e-01 -2.611123e-01 2.940702e+00 34 34 23
-7.359808e-01 -4.519588e-01 2.986723e+00 176 157 102
-7.695458e-01 -5.154607e-01 2.953988e+00 167 144 108
-7.805686e-01 -5.237796e-01 2.770449e+00 123 68 39
-7.572348e-01 -4.285214e-01 3.004336e+00 160 137 96
-6.075229e-01 -4.927592e-03 3.184251e+00 166 146 111
-5.833355e-01 -5.796210e-02 3.027031e+00 180 124 97
-7.037486e-01 -1.868097e-01 3.218406e+00 19 16 18
-9.219198e-01 4.793131e-02 2.830995e+00 30 22 4
-7.291397e-01 -2.710104e-01 2.998295e+00 144 128 100
-7.646834e-01 -2.418434e-01 2.915850e+00 131 128 111
-7.112344e-01 -2.256781e-01 2.977541e+00 56 51 49
-5.518557e-01 -5.609048e-02 3.283032e+00 161 139 99
5.278568e-01 -1.752950e-02 2.543116e+00 160 132 93
-7.478652e-01 -2.618788e-01 2.939899e+00 34 34 23
-8.088430e-01 -2.320465e-01 2.865932e+00 39 35 31
-5.817394e-01 -4.406758e-02 3.070940e+00 149 99 48
-5.438176e-01 -1.582455e-02 3.258660e+00 158 136 83
-7.965117e-01 9.556536e-02 2.819178e+00 108 97 75
-6.634342e-01 -8.159923e-02 3.210232e+00 12 9 10
-1.494168e+00 -1.842844e-02 3.598864e+00 19 9 1
-5.970913e-01 -1.820373e-02 3.161080e+00 165 145 102
3.506675e-01 -8.385532e-03 2.528515e+00 165 141 101
-7.489114e-01 -3.731643e-01 3.055953e+00 190 167 132
-6.957230e-01 -1.238197e-01 3.252535e+00 41 29 23
-5.105925e-01 5.646879e-02 2.980751e+00 23 8 5
-5.064171e-01 1.407102e-02 2.975538e+00 179 115 85
-7.447880e-01 -2.369755e-01 2.931018e+00 37 29 18
-7.528655e-01 -2.498446e-01 2.926545e+00 137 126 112
-7.951461e-01 -3.715647e-01 3.076610e+00 35 23 16
-6.338465e-01 -3.552979e-02 2.907473e+00 27 11 3
-7.138451e-01 -2.387161e-01 3.028809e+00 34 22 23
-8.179863e-01 -4.370992e-01 2.788515e+00 6 8 8
-8.041715e-01 -3.933409e-01 3.063816e+00 175 149 97
-8.609542e-01 -3.847462e-01 2.769323e+00 20 10 0
-6.353417e-01 -6.982752e-02 3.194364e+00 10 7 3
-7.964258e-01 -4.412075e-01 2.820396e+00 55 22 9
-5.805068e-01 -1.540209e-02 3.153184e+00 161 146 107
-8.879942e-01 5.337111e-02 2.801323e+00 121 98 61
-8.017304e-01 -3.392497e-01 2.925901e+00 81 49 27
-7.758565e-01 -4.712689e-01 2.991188e+00 66 47 20
-7.790379e-01 -4.895648e-01 2.976391e+00 45 30 9
-8.758246e-01 -5.521590e-01 2.819528e+00 193 167 118
-5.926514e-01 7.409613e-03 3.166002e+00 33 25 11
-7.110619e-01 -1.850456e-01 3.220714e+00 12 12 14
-8.098005e-01 -3.641331e-01 3.118647e+00 185 161 124
-8.348323e-01 -3.706124e-01 3.073673e+00 45 29 17
-7.576942e-01 -4.061690e-01 2.877188e+00 40 2 1
-7.561840e-01 -4.075958e-01 2.876953e+00 40 2 1
-8.042894e-01 -4.513699e-01 3.023726e+00 59 39 10
-7.606142e-01 -4.563885e-01 2.814038e+00 59 17 0
-8.905541e-01 -4.242501e-01 2.782259e+00 41 26 2
-8.302573e-01 -8.374398e-02 2.808493e+00 12 12 14
-7.583507e-01 1.279097e-01 2.827983e+00 118 89 41
-7.583507e-01 1.279097e-01 2.827983e+00 118 89 41
-6.019142e-01 -2.711754e-02 3.075964e+00 181 118 71
-8.109965e-01 -5.772449e-01 2.892905e+00 187 170 113
-5.254737e-01 1.258991e-03 2.936486e+00 192 126 80
-5.611467e-01 -3.356050e-02 3.016909e+00 90 32 3
-6.669435e-01 -4.900110e-02 3.027627e+00 204 131 89
-7.404709e-01 -2.329422e-01 3.227623e+00 52 37 17
-7.207328e-01 -2.267609e-01 2.965396e+00 45 38 33
-5.210190e-01 -1.386464e-02 3.071185e+00 15 13 12
-8.653623e-01 8.131903e-02 2.881121e+00 119 97 54
-7.985303e-01 -3.803416e-01 2.831720e+00 75 50 19
-7.708155e-01 -2.795450e-02 2.816872e+00 55 57 56
-7.833448e-01 -4.485459e-01 2.831744e+00 66 23 3
-5.693433e-01 1.709572e-02 3.177290e+00 147 130 92
-5.686613e-01 -3.281962e-02 3.084557e+00 132 93 61
-6.653767e-01 -8.430687e-02 3.240527e+00 12 6 0
-6.230055e-01 -3.788055e-02 2.924494e+00 24 6 2
-7.204155e-01 -2.391202e-01 2.965384e+00 85 86 75
-8.865801e-01 -3.491587e-01 2.789038e+00 30 17 1
-7.557860e-01 -4.239221e-01 2.869845e+00 146 104 61
-7.641460e-01 -4.198476e-01 2.841776e+00 37 0 0
-8.452852e-01 -9.114853e-02 2.725545e+00 40 33 29
-6.443180e-01 -5.423739e-02 3.219928e+00 151 134 94
-8.938975e-01 -2.693944e-02 2.767204e+00 36 26 14
-5.200866e-01 8.132391e-03 3.013027e+00 129 74 46
-7.252032e-01 -9.963828e-02 3.283779e+00 33 24 1
-7.434096e-01 -1.142027e-01 3.176200e+00 9 8 1
-7.720540e-01 -1.697718e-01 2.858359e+00 35 29 29
-7.676728e-01 -2.637843e-01 2.904077e+00 33 31 25
-8.672825e-01 -3.491095e-01 3.133124e+00 47 35 20
-7.579534e-01 -4.239869e-01 2.867957e+00 162 106 73
-7.605248e-01 -4.607999e-01 2.832394e+00 182 122 74
-7.624265e-01 -4.434448e-01 2.840530e+00 189 125 71
-6.422681e-01 2.726149e-02 3.193078e+00 28 23 19
-5.928886e-01 3.482491e-03 3.134807e+00 5 7 5
-8.065758e-01 -3.488796e-01 2.950498e+00 90 54 30
-5.038281e-01 4.090669e-02 2.972268e+00 131 90 74
-5.159154e-01 2.467843e-02 2.998852e+00 121 81 56
-5.321437e-01 2.355645e-02 3.019152e+00 58 16 0
-5.321437e-01 2.355645e-02 3.019152e+00 58 16 0
-8.070355e-01 6.270651e-02 2.806735e+00 97 82 66
-7.213671e-01 -9.178277e-02 3.261340e+00 20 9 1
-7.507837e-01 -1.183463e-01 3.283791e+00 54 45 18
-7.239559e-01 -2.477902e-01 2.974349e+00 59 50 42
-7.926736e-01 -2.953081e-01 3.263832e+00 185 160 94
-8.730012e-01 -3.580515e-03 2.777625e+00 32 29 25
-7.261970e-01 -2.154599e-01 2.881240e+00 111 99 81
-7.873365e-01 -5.063053e-01 2.796477e+00 112 61 36
-5.606080e-01 -1.963880e-02 3.022563e+00 157 96 44
-6.872478e-01 -7.657545e-02 3.265458e+00 164 147 110
-8.053014e-01 -4.736307e-01 2.803031e+00 138 90 54
-7.970554e-01 -4.715134e-01 2.799130e+00 138 90 54
-5.833654e-01 -4.903883e-02 3.045441e+00 160 114 76
-8.596931e-01 1.993042e-02 2.776163e+00 34 22 3
-7.480109e-01 -1.823668e-01 2.881582e+00 37 33 31
-7.405448e-01 -4.405003e-01 3.018912e+00 138 121 78
-8.294704e-01 -5.043653e-01 2.757103e+00 175 156 104
-7.704192e-01 -5.005421e-01 3.014509e+00 171 146 89
-8.706138e-01 2.942196e-02 2.776106e+00 132 115 73
-5.559152e-01 4.495245e-02 3.011097e+00 18 6 1
-5.904015e-01 -1.692484e-02 3.029088e+00 158 99 52
-5.594576e-01 3.779509e-02 3.042636e+00 21 10 3
-5.297441e-01 1.028297e-02 3.014228e+00 136 82 45
-5.597026e-01 -4.004539e-02 3.012546e+00 174 116 102
-7.601523e-01 -1.260863e-01 3.280942e+00 51 40 27
-8.260130e-01 -3.991498e-01 3.054936e+00 145 122 84
-8.370074e-01 -2.222889e-01 2.787232e+00 35 33 32
-8.912974e-01 -3.066778e-01 2.760839e+00 182 152 88
-7.804017e-01 -4.949979e-01 2.888037e+00 8 8 7
-6.662362e-01 -3.250366e-02 3.228212e+00 126 100 52
-7.902387e-01 -3.743459e-01 2.923612e+00 29 16 5
-8.122179e-01 3.420433e-02 2.817601e+00 20 21 17
-8.357163e-01 -4.036347e-01 3.040614e+00 25 18 1
-8.159466e-01 -4.468387e-01 2.763965e+00 160 133 82
-8.113613e-01 -5.997770e-01 2.854958e+00 204 176 122
-8.165016e-01 4.599416e-02 2.803884e+00 132 116 88
-6.879593e-01 -1.589214e-01 3.275090e+00 41 29 9
-8.753359e-01 1.184217e-02 2.766707e+00 158 132 91
-7.917818e-01 -3.515948e-01 2.897368e+00 22 4 0
-8.423019e-01 -3.356247e-01 2.798147e+00 40 20 1
-8.819146e-01 -3.824998e-01 2.779100e+00 138 117 89
-8.367585e-01 -5.765900e-01 2.897222e+00 186 164 120
-5.333191e-01 1.844866e-02 3.047560e+00 20 6 1
-5.248333e-01 -2.467128e-02 2.997875e+00 155 87 54
-8.336431e-01 -6.260099e-02 2.828491e+00 3 3 5
-7.396626e-01 -2.755450e-01 2.984204e+00 141 132 109
-8.707428e-01 -2.554018e-01 2.774066e+00 44 27 15
-8.067302e-01 -4.682605e-01 2.763729e+00 29 10 1
-7.360297e-01 1.009040e-01 2.832720e+00 136 108 59
-7.330544e-01 8.045150e-02 2.845403e+00 22 12 4
-8.067082e-01 -3.495610e-01 2.950140e+00 93 48 22
-8.211877e-01 -3.492079e-01 2.766361e+00 176 144 93
-7.967637e-01 -3.578751e-01 2.762401e+00 170 139 92
-5.465067e-01 -2.030747e-02 3.022132e+00 167 106 60
-7.428623e-01 5.160309e-02 2.778404e+00 17 8 1
-7.719707e-01 -1.778199e-01 2.855582e+00 108 100 93
-7.583565e-01 -2.884751e-01 2.964382e+00 32 26 28
-8.487167e-01 -2.851663e-01 2.769862e+00 182 155 117
-7.599376e-01 -3.808294e-01 2.868204e+00 51 2 0
-8.263132e-01 -3.648912e-01 2.771674e+00 54 28 6
-7.671362e-01 -4.514020e-01 2.854419e+00 178 112 68
-7.941904e-01 -4.692472e-01 2.798445e+00 131 101 79
-5.441323e-01 -8.370970e-03 3.028894e+00 99 44 2
-9.093298e-01 -2.357733e-01 2.762152e+00 155 133 94
-7.622588e-01 -4.595665e-01 2.981832e+00 73 65 51
-7.447664e-01 -2.740960e-01 2.966310e+00 135 132 113
-6.161345e-01 -6.294924e-02 3.055934e+00 26 7 0
-7.266000e-01 -2.225389e-01 2.869161e+00 121 109 97
-7.393601e-01 -1.941838e-01 2.890681e+00 36 34 32
-8.062690e-01 -4.614199e-01 3.018182e+00 47 32 3
-7.404745e-01 1.355658e-01 2.853360e+00 14 9 7
-7.671556e-01 -4.770954e-01 2.886065e+00 58 14 0
-7.813787e-01 -4.283987e-01 2.881667e+00 147 76 25
-8.231488e-01 4.987257e-02 2.807042e+00 141 118 67
-8.281452e-01 -3.174258e-01 2.773382e+00 167 140 89
-8.423493e-01 2.529390e-02 2.774339e+00 153 130 90
-8.484457e-01 -3.565856e-02 2.760075e+00 26 18 14
-7.821717e-01 1.032067e-01 2.842823e+00 136 111 69
-5.519195e-01 -2.261303e-02 2.994965e+00 164 93 62
-6.480955e-01 -1.282466e-02 2.878404e+00 59 31 21
-7.574994e-01 -2.426132e-01 2.885254e+00 35 30 25
-7.574994e-01 -2.426132e-01 2.885254e+00 35 30 25
-8.297917e-01 -3.718908e-02 2.844824e+00 9 8 6
-9.222421e-01 -3.088723e-02 2.763026e+00 169 140 101
-5.755417e-01 -5.776092e-02 2.991911e+00 21 0 0
-8.946234e-01 -8.565541e-04 2.772881e+00 47 31 13
-7.403814e-01 -2.084244e-01 2.898878e+00 114 107 89
-6.089702e-01 3.689839e-02 2.899919e+00 22 5 1
-5.612193e-01 -4.938058e-02 3.012667e+00 28 7 3
-5.890753e-01 -4.445915e-02 2.946234e+00 178 126 89
-8.570719e-01 -1.264578e-01 2.751522e+00 62 46 27
-7.614630e-01 -2.299126e-01 2.903616e+00 37 29 18
-1.113454e+00 -2.688179e-01 3.098836e+00 38 25 11
-8.597035e-01 -3.753720e-01 2.782628e+00 27 15 3
-8.197201e-01 -5.297762e-01 2.775050e+00 196 171 122
-9.150335e-01 -2.112988e-02 2.764556e+00 167 140 97
-6.860773e-01 5.562629e-02 2.871614e+00 12 16 15
-9.497848e-01 -1.328042e-01 2.774793e+00 54 41 24
-9.851959e-01 1.301267e-01 2.759990e+00 168 140 101
-6.252331e-01 -8.074028e-02 3.086230e+00 17 17 15
-5.180357e-01 -4.242012e-02 2.992785e+00 92 21 3
-5.401572e-01 -4.385850e-02 3.015091e+00 185 130 110
-7.442320e-01 -2.259957e-01 2.921847e+00 152 147 132
-8.568458e-01 -4.275106e-01 2.763292e+00 164 140 104
-1.324863e+00 2.253395e-01 2.666682e+00 145 111 53
-9.039971e-01 -4.947629e-01 2.994458e+00 166 144 92
-1.399508e+00 2.572064e-01 2.683218e+00 23 2 0
-8.788300e-01 9.698031e-03 2.778912e+00 30 11 1
-7.549367e-01 -1.937894e-01 2.873756e+00 44 39 31
-7.166343e-01 -2.664182e-01 2.996028e+00 132 123 102
-1.275749e+00 -2.956168e-02 2.785496e+00 169 140 100
-7.682192e-01 -2.250749e-01 2.890667e+00 30 25 21
-8.549795e-01 -3.791993e-01 2.772989e+00 167 143 107
-7.934802e-01 -5.394802e-01 2.807339e+00 19 16 10
-7.290706e-01 -4.535090e-01 2.830568e+00 217 141 96
-7.636186e-01 4.796112e-02 2.828070e+00 55 43 36
-8.103893e-01 -3.449888e-01 2.845438e+00 8 7 2
-8.697519e-01 -4.626726e-01 2.781151e+00 21 8 0
-1.104945e+00 1.819364e-01 2.728253e+00 170 138 104
-1.139124e+00 1.892523e-01 2.759217e+00 18 6 0
-1.153414e+00 1.580750e-01 2.764335e+00 28 11 4
-5.884461e-01 -5.572129e-02 2.981633e+00 37 11 3
-5.825083e-01 -4.849562e-02 2.942651e+00 180 121 89
-8.011733e-01 4.043327e-02 2.813605e+00 56 41 28
-8.553381e-01 3.345151e-02 2.788917e+00 23 10 2
-9.093511e-01 -2.040810e-02 2.771088e+00 27 10 1
-7.880775e-01 -2.630509e-01 2.774750e+00 183 158 115
-8.609591e-01 -3.412485e-01 2.782615e+00 62 41 6
-8.609591e-01 -3.412485e-01 2.782615e+00 62 41 6
-7.421739e-01 -4.414707e-01 2.850630e+00 176 110 70
-8.060489e-01 -4.656754e-01 2.788468e+00 20 10 0
-8.187127e-01 5.125046e-02 2.803353e+00 165 141 99
-5.261791e-01 -3.502391e-02 2.973729e+00 168 97 51
-9.035163e-01 -2.902207e-03 2.773757e+00 47 33 23
-9.268924e-01 -3.149398e-01 3.134440e+00 158 134 94
-7.682139e-01 -3.840437e-01 2.856713e+00 165 100 84
-5.131268e-01 -1.720246e-02 2.932647e+00 126 53 10
-2.554661e-01 -3.513070e-02 2.753630e+00 177 153 119
-7.146372e-01 -1.043709e-01 3.166963e+00 5 3 4
-6.496581e-01 -2.717632e-02 2.890809e+00 154 97 57
-7.426891e-01 -2.789012e-01 2.994698e+00 29 27 11
-7.427355e-01 -2.733389e-01 2.967208e+00 143 137 121
-8.648639e-01 -3.101547e-01 2.821724e+00 17 11 2
-7.863129e-01 -4.452501e-01 2.944112e+00 5 6 6
-8.512196e-01 -2.954098e-01 2.875030e+00 5 5 3
-8.182281e-01 -3.815205e-01 2.774542e+00 179 157 102
-7.576807e-01 -5.396605e-01 2.765568e+00 206 181 125
-8.477281e-01 -3.811047e-01 2.800338e+00 20 7 3
-7.617171e-01 -1.825904e-01 2.877026e+00 103 95 93
-7.632214e-01 -3.891166e-01 2.806959e+00 84 70 58
-9.405906e-01 -5.324508e-01 2.888240e+00 182 163 123
-7.273597e-01 -4.386783e-01 2.854511e+00 54 7 0
-1.148792e+00 1.846671e-01 2.735482e+00 161 136 101
-9.063849e-01 3.161475e-02 2.786045e+00 49 31 9
-9.440260e-01 1.922225e-02 2.765520e+00 167 137 93
-7.331812e-01 -1.984738e-01 2.926553e+00 32 29 25
-7.366176e-01 -2.759348e-01 3.003713e+00 133 122 110
-8.373211e-01 -1.907549e-01 2.840053e+00 104 99 94
-7.781348e-01 -2.228003e-01 2.931358e+00 30 24 24
-8.016323e-01 -1.899758e-01 2.863751e+00 131 120 102
-8.016323e-01 -1.899758e-01 2.863751e+00 131 120 102
-7.516660e-01 -4.393697e-01 2.827938e+00 208 139 90
-8.867360e-01 -3.278784e-01 2.793389e+00 16 7 1
-9.232807e-01 -2.297282e-01 2.794550e+00 40 25 17
-8.028300e-01 -3.479494e-01 2.846754e+00 25 7 3
-9.474111e-01 -4.318720e-01 3.001208e+00 118 100 60
-8.912915e-01 -1.158746e-01 2.805158e+00 20 18 21
-8.484812e-01 -1.352709e-01 2.809847e+00 20 18 21
-7.272510e-01 -2.053127e-01 2.948497e+00 111 106 96
-7.794400e-01 4.582195e-02 2.803460e+00 168 140 90
-8.041542e-01 -4.175008e-01 2.830783e+00 217 141 96
-8.160440e-01 6.807196e-02 2.831517e+00 58 44 32
-6.446041e-01 -2.233657e-02 3.021035e+00 141 84 47
-8.254343e-01 5.515284e-03 2.781276e+00 171 150 115
-7.729061e-01 -4.937517e-01 2.927127e+00 3 3 1
-7.458451e-01 -2.032544e-01 2.914455e+00 119 114 102
-8.224901e-01 -5.647838e-01 2.797095e+00 192 169 120
-7.414748e-01 -2.737175e-01 2.967701e+00 141 129 113
-7.553124e-01 -4.705071e-01 2.874066e+00 87 33 0
-1.093632e+00 1.764951e-01 2.758668e+00 172 143 110
-7.576380e-01 -3.738559e-01 2.963923e+00 85 58 35
-9.586555e-01 -5.166623e-01 2.896861e+00 176 154 108
-7.854005e-01 -6.172262e-01 2.821788e+00 168 149 110
-7.661954e-01 -2.286879e-01 2.934330e+00 76 70 58
-7.905958e-01 -5.087796e-02 2.847043e+00 18 17 17
-8.352623e-01 -4.645011e-01 2.766157e+00 200 170 109
-7.927425e-01 -3.671991e-01 2.851454e+00 175 113 98
-8.260991e-01 -4.308994e-01 2.791229e+00 32 10 0
-8.494426e-01 -3.260564e-01 2.812308e+00 51 35 4
-8.252702e-01 -4.975179e-01 2.767589e+00 215 188 126
-1.055402e+00 1.157347e-01 2.762031e+00 12 0 0
-7.593256e-01 -4.845369e-01 2.863185e+00 24 1 0
-6.005615e-01 -2.818692e-01 2.995141e+00 50 43 41
-8.906897e-01 -1.471421e-02 2.818618e+00 52 48 49
-8.906897e-01 -1.471421e-02 2.818618e+00 52 48 49
-9.227116e-01 -3.476654e-01 3.044460e+00 80 71 50
-8.927072e-01 -2.831250e-01 2.888965e+00 65 51 42
-8.555754e-01 -5.839336e-01 2.829978e+00 175 156 115
1.178262e+01 -1.104501e+01 5.205200e+00 11 1 0
-9.590013e-01 -3.088676e-01 2.752585e+00 190 162 104
-8.199771e-01 -3.117004e-01 2.836350e+00 19 19 14
-8.135997e-01 -3.437528e-01 2.836128e+00 22 8 1
2.593234e-01 -4.017296e-02 8.788082e-01 0 255 0
2.823874e-01 -3.236472e-02 8.351381e-01 255 255 0
2.577218e-01 -4.168713e-02 8.858381e-01 255 0 0
2.807479e-01 -3.424414e-02 8.420842e-01 255 255 0
3.226333e-01 -2.323591e-02 9.116249e-01 0 255 0
3.474889e-01 -1.504681e-02 8.690205e-01 255 255 0
-1.706985e+00 -3.037580e-01 4.926929e+00 255 0 0
-1.687561e+00 -3.054633e-01 4.880888e+00 255 255 0
-1.775467e+00 -2.514482e-01 4.860974e+00 0 255 0
-1.754192e+00 -2.540227e-01 4.815799e+00 255 255 0
6.511892e-01 2.976451e-02 1.141499e+00 255 0 0
6.835891e-01 3.799325e-02 1.104317e+00 255 255 0
-1.871817e+00 -3.279738e-01 4.812471e+00 0 255 0
-1.847948e+00 -3.287180e-01 4.768542e+00 255 255 0
-1.930664e+00 -3.186562e-01 4.766371e+00 255 0 0
-1.905666e+00 -3.202512e-01 4.723098e+00 255 255 0
-1.988621e+00 -3.097826e-01 4.706704e+00 0 255 0
-1.962372e+00 -3.127176e-01 4.664249e+00 255 255 0
7.745923e-01 -9.757162e-02 1.276944e+00 255 0 0
8.099072e-01 -9.115233e-02 1.242136e+00 255 255 0
-2.078561e+00 -1.939152e-01 4.610871e+00 0 255 0
-2.049769e+00 -1.983908e-01 4.570239e+00 255 255 0
-2.131261e+00 -1.747876e-01 4.564794e+00 255 0 0
-2.101158e+00 -1.795307e-01 4.525154e+00 255 255 0
-2.210918e+00 -1.294674e-01 4.511462e+00 0 255 0
-2.179282e+00 -1.350608e-01 4.473149e+00 255 255 0
-2.316291e+00 -1.350270e-01 4.430837e+00 255 0 0
-2.281957e+00 -1.405756e-01 4.394915e+00 255 255 0
1.157231e+00 -2.321872e-01 1.626202e+00 0 255 0
1.199545e+00 -2.294548e-01 1.599707e+00 255 255 0
-2.511271e+00 -1.042080e-01 4.230024e+00 255 0 0
-2.472704e+00 -1.097412e-01 4.198688e+00 255 255 0
-2.565240e+00 -5.991871e-02 4.169484e+00 0 255 0
-2.525362e+00 -6.642346e-02 4.140032e+00 255 255 0
-2.608419e+00 -8.249608e-02 4.091207e+00 255 0 0
-2.567391e+00 -8.837859e-02 4.063241e+00 255 255 0
-2.657153e+00 1.512285e-02 3.991209e+00 0 255 0
-2.615310e+00 6.621651e-03 3.965192e+00 255 255 0
-2.694428e+00 7.189594e-02 3.938539e+00 255 0 0
-2.651561e+00 6.249064e-02 3.914583e+00 255 255 0
-2.774945e+00 6.726808e-02 3.803213e+00 0 255 0
-2.730391e+00 5.809524e-02 3.782458e+00 255 255 0
-2.833268e+00 1.409231e-01 3.670965e+00 255 0 0
-2.788020e+00 1.304260e-01 3.652460e+00 255 255 0
-2.886837e+00 1.899603e-01 3.398380e+00 0 255 0
-2.839806e+00 1.786417e-01 3.385731e+00 255 255 0
-2.821098e+00 2.068397e-01 3.167660e+00 255 0 0
-2.773484e+00 1.936305e-01 3.160017e+00 255 255 0
-2.764018e+00 3.041907e-01 3.132582e+00 0 255 0
-2.717073e+00 2.885430e-01 3.125419e+00 255 255 0
1.429612e+00 -1.239224e-01 2.452707e+00 255 0 0
1.478743e+00 -1.194738e-01 2.444562e+00 255 255 0
-2.866438e+00 2.003798e-01 3.307702e+00 0 255 0
-2.819121e+00 1.883255e-01 3.296940e+00 255 255 0
-2.721797e+00 3.242238e-01 3.060379e+00 255 0 0
-2.674791e+00 3.080949e-01 3.054878e+00 255 255 0
-2.666534e+00 3.374628e-01 2.969489e+00 0 255 0
-2.619510e+00 3.208088e-01 2.966109e+00 255 255 0
1.239500e+00 -4.104563e-01 2.962902e+00 255 0 0
1.289422e+00 -4.120893e-01 2.965164e+00 255 255 0
-2.564057e+00 3.852061e-01 2.812720e+00 0 255 0
-2.517882e+00 3.660510e-01 2.813719e+00 255 255 0
-2.485778e+00 4.558378e-01 2.809523e+00 255 0 0
-2.440689e+00 4.342346e-01 2.809991e+00 255 255 0
-2.416550e+00 4.573525e-01 2.777210e+00 0 255 0
-2.372066e+00 4.347075e-01 2.780108e+00 255 255 0
-2.364492e+00 4.645516e-01 2.738425e+00 255 0 0
-2.320548e+00 4.411541e-01 2.743061e+00 255 255 0
-2.324725e+00 4.769125e-01 2.713174e+00 0 255 0
-2.281141e+00 4.530343e-01 2.718675e+00 255 255 0
-2.289822e+00 4.999783e-01 2.676858e+00 255 0 0
-2.246927e+00 4.749270e-01 2.682547e+00 255 255 0
-2.239433e+00 5.288383e-01 2.636708e+00 0 255 0
-2.198046e+00 5.018811e-01 2.644479e+00 255 255 0
-2.257208e+00 5.230669e-01 2.656346e+00 255 0 0
-2.215289e+00 4.968130e-01 2.663662e+00 255 255 0
-2.173201e+00 5.547582e-01 2.573171e+00 0 255 0
-2.132762e+00 5.265693e-01 2.581540e+00 255 255 0
-2.213097e+00 5.296214e-01 2.624017e+00 255 0 0
-2.172248e+00 5.017378e-01 2.631355e+00 255 255 0
-2.155939e+00 5.408656e-01 2.555739e+00 0 255 0
-2.116676e+00 5.114171e-01 2.565289e+00 255 255 0
